# .PCD v0.7 - Point Cloud Data file format
VERSION 0.7
FIELDS x y z
SIZE 4 4 4
TYPE F F F
COUNT 1 1 1
WIDTH 1033
HEIGHT 1
VIEWPOINT 0 0 0 1 0 0 0
POINTS 1033
DATA ascii
-0.008601428 -0.0062940437 0.24600001
-0.0079536689 -0.0062940437 0.24600001
-0.0072762119 -0.0062684584 0.245
-0.0066310856 -0.0062684584 0.245
-0.0059859594 -0.0062684584 0.245
-0.00082832022 -0.0062940437 0.24600001
-0.00018056124 -0.0062940437 0.24600001
0.00046719777 -0.0062940437 0.24600001
0.0011149568 -0.0062940437 0.24600001
-0.011192465 -0.0056462851 0.24600001
-0.010544705 -0.0056462851 0.24600001
-0.0098969461 -0.0056462851 0.24600001
-0.009249188 -0.0056462851 0.24600001
-0.0085664624 -0.0056233327 0.245
-0.0079213372 -0.0056233327 0.245
-0.0072762119 -0.0056233327 0.245
-0.0066310856 -0.0056233327 0.245
-0.0059859594 -0.0056233327 0.245
-0.0053408341 -0.0056233327 0.245
-0.0046957079 -0.0056233327 0.245
-0.0034054564 -0.0056233327 0.245
-0.0027603307 -0.0056233327 0.245
-0.0021152047 -0.0056233327 0.245
-0.0014700789 -0.0056233327 0.245
-0.00082495308 -0.0056233327 0.245
-0.00017982726 -0.0056233327 0.245
0.0004652986 -0.0056233327 0.245
0.0011104244 -0.0056233327 0.245
0.0017555503 -0.0056233327 0.245
-0.011192465 -0.0049985261 0.24600001
-0.010544705 -0.0049985261 0.24600001
-0.0098567149 -0.0049782065 0.245
-0.0092115896 -0.0049782065 0.245
-0.0085664624 -0.0049782065 0.245
-0.0079213372 -0.0049782065 0.245
-0.0072762119 -0.0049782065 0.245
-0.0066310856 -0.0049782065 0.245
-0.0059859594 -0.0049782065 0.245
-0.0053408341 -0.0049782065 0.245
-0.0046957079 -0.0049782065 0.245
-0.0040505826 -0.0049782065 0.245
-0.0034054564 -0.0049782065 0.245
-0.0027603307 -0.0049782065 0.245
-0.0021152047 -0.0049782065 0.245
-0.0014700789 -0.0049782065 0.245
-0.00082495308 -0.0049782065 0.245
-0.00017982726 -0.0049782065 0.245
0.0004652986 -0.0049782065 0.245
0.0011104244 -0.0049782065 0.245
0.0017555503 -0.0049782065 0.245
0.002400676 -0.0049782065 0.245
0.0030458018 -0.0049782065 0.245
0.0036758631 -0.0049578878 0.24400002
-0.012487982 -0.0043507665 0.24600001
-0.011840223 -0.0043507665 0.24600001
-0.011146967 -0.0043330807 0.245
-0.01050184 -0.0043330807 0.245
-0.0098567149 -0.0043330807 0.245
-0.0092115896 -0.0043330807 0.245
-0.0085664624 -0.0043330807 0.245
-0.0078890054 -0.0043153949 0.24400002
-0.0072465134 -0.0043153949 0.24400002
-0.0066040205 -0.0043153949 0.24400002
-0.0059615276 -0.0043153949 0.24400002
-0.0053190351 -0.0043153949 0.24400002
-0.0046765422 -0.0043153949 0.24400002
-0.0040340498 -0.0043153949 0.24400002
-0.0033915567 -0.0043153949 0.24400002
-0.002749064 -0.0043153949 0.24400002
-0.0021065713 -0.0043153949 0.24400002
-0.0014700789 -0.0043330807 0.245
-0.00082158594 -0.0043153949 0.24400002
-0.00017982726 -0.0043330807 0.245
0.0004652986 -0.0043330807 0.245
0.0011104244 -0.0043330807 0.245
0.0017483848 -0.0043153949 0.24400002
0.0023908776 -0.0043153949 0.24400002
0.0030333702 -0.0043153949 0.24400002
0.0036758631 -0.0043153949 0.24400002
0.0043183556 -0.0043153949 0.24400002
-0.013135741 -0.0037030079 0.24600001
-0.012437218 -0.003687955 0.245
-0.011792093 -0.003687955 0.245
-0.011146967 -0.003687955 0.245
-0.01050184 -0.003687955 0.245
-0.0098567149 -0.003687955 0.245
-0.0091739912 -0.0036729022 0.24400002
-0.0085314978 -0.0036729022 0.24400002
-0.0078890054 -0.0036729022 0.24400002
-0.0072465134 -0.0036729022 0.24400002
-0.0066040205 -0.0036729022 0.24400002
-0.0059615276 -0.0036729022 0.24400002
-0.0053190351 -0.0036729022 0.24400002
-0.0046765422 -0.0036729022 0.24400002
-0.0040340498 -0.0036729022 0.24400002
-0.0033915567 -0.0036729022 0.24400002
-0.002749064 -0.0036729022 0.24400002
-0.0021065713 -0.0036729022 0.24400002
-0.0014640788 -0.0036729022 0.24400002
-0.00082158594 -0.0036729022 0.24400002
-0.00017909327 -0.0036729022 0.24400002
0.00046339945 -0.0036729022 0.24400002
0.0011058921 -0.0036729022 0.24400002
0.0017483848 -0.0036729022 0.24400002
0.0023908776 -0.0036729022 0.24400002
0.0030333702 -0.0036729022 0.24400002
0.0036758631 -0.0036729022 0.24400002
0.0043183556 -0.0036729022 0.24400002
0.004960848 -0.0036729022 0.24400002
0.022310214 -0.0044405991 0.29500002
0.02316526 -0.0044556516 0.296
-0.013082344 -0.0030428292 0.245
-0.012437218 -0.0030428292 0.245
-0.011792093 -0.0030428292 0.245
-0.011146967 -0.0030428292 0.245
-0.010458976 -0.0030304096 0.24400002
-0.0098164836 -0.0030304096 0.24400002
-0.0091739912 -0.0030304096 0.24400002
-0.0085314978 -0.0030304096 0.24400002
-0.0078890054 -0.0030304096 0.24400002
-0.0072465134 -0.0030304096 0.24400002
-0.0066040205 -0.0030304096 0.24400002
-0.0059615276 -0.0030304096 0.24400002
-0.0053190351 -0.0030304096 0.24400002
-0.0046765422 -0.0030304096 0.24400002
-0.0040340498 -0.0030304096 0.24400002
-0.0033915567 -0.0030304096 0.24400002
-0.002749064 -0.0030304096 0.24400002
-0.0021065713 -0.0030304096 0.24400002
-0.0014640788 -0.0030304096 0.24400002
-0.00082158594 -0.0030304096 0.24400002
-0.00017909327 -0.0030304096 0.24400002
0.00046339945 -0.0030304096 0.24400002
0.0011058921 -0.0030304096 0.24400002
0.0017483848 -0.0030304096 0.24400002
0.0023908776 -0.0030304096 0.24400002
0.0030333702 -0.0030304096 0.24400002
0.0036758631 -0.0030304096 0.24400002
0.0043183556 -0.0030304096 0.24400002
0.004960848 -0.0030304096 0.24400002
0.0056033409 -0.0030304096 0.24400002
0.021460436 -0.003651395 0.294
0.022310214 -0.0036638149 0.29500002
0.02316526 -0.0036762345 0.296
0.023944678 -0.0036762345 0.296
0.024807623 -0.0036886544 0.29700002
0.025675833 -0.003701074 0.29800001
0.026638106 -0.0037259134 0.30000001
0.027519481 -0.0037383332 0.30100003
0.028312067 -0.0037383332 0.30100003
0.029201342 -0.0037507529 0.30200002
0.029996557 -0.0037507529 0.30200002
-0.013082344 -0.0023977032 0.245
-0.012437218 -0.0023977032 0.245
-0.011743962 -0.0023879167 0.24400002
-0.011101469 -0.0023879167 0.24400002
-0.010458976 -0.0023879167 0.24400002
-0.0098164836 -0.0023879167 0.24400002
-0.0091363927 -0.0023781301 0.24300002
-0.0084965331 -0.0023781301 0.24300002
-0.0078566736 -0.0023781301 0.24300002
-0.0072168144 -0.0023781301 0.24300002
-0.0065769549 -0.0023781301 0.24300002
-0.0059370948 -0.0023781301 0.24300002
-0.0052972357 -0.0023781301 0.24300002
-0.0046573761 -0.0023781301 0.24300002
-0.0040175165 -0.0023781301 0.24300002
-0.0033776569 -0.0023781301 0.24300002
-0.0027377973 -0.0023781301 0.24300002
-0.002097938 -0.0023781301 0.24300002
-0.0014580784 -0.0023781301 0.24300002
-0.0008182188 -0.0023781301 0.24300002
-0.00017835929 -0.0023781301 0.24300002
0.00046150025 -0.0023781301 0.24300002
0.0011013598 -0.0023781301 0.24300002
0.0017412193 -0.0023781301 0.24300002
0.0023810789 -0.0023781301 0.24300002
0.0030209383 -0.0023781301 0.24300002
0.0036607981 -0.0023781301 0.24300002
0.0043006577 -0.0023781301 0.24300002
0.0049405168 -0.0023781301 0.24300002
0.0062202364 -0.0023781301 0.24300002
0.020615924 -0.0028674575 0.29300001
0.021460436 -0.0028772438 0.294
0.022310214 -0.0028870304 0.29500002
0.02316526 -0.0028968169 0.296
0.023944678 -0.0028968169 0.296
0.024807623 -0.0029066035 0.29700002
0.025675833 -0.0029163901 0.29800001
0.026549313 -0.0029261766 0.29900002
0.027428053 -0.0029359632 0.30000001
0.028312067 -0.0029457498 0.30100003
0.029201342 -0.0029555364 0.30200002
0.029996557 -0.0029555364 0.30200002
-0.012386454 -0.0017454241 0.24400002
-0.011743962 -0.0017454241 0.24400002
-0.011101469 -0.0017454241 0.24400002
-0.010416112 -0.0017382707 0.24300002
-0.0097762523 -0.0017382707 0.24300002
-0.0091363927 -0.0017382707 0.24300002
-0.0084965331 -0.0017382707 0.24300002
-0.0078566736 -0.0017382707 0.24300002
-0.0072168144 -0.0017382707 0.24300002
-0.0065769549 -0.0017382707 0.24300002
-0.0059370948 -0.0017382707 0.24300002
-0.0052972357 -0.0017382707 0.24300002
-0.0046573761 -0.0017382707 0.24300002
-0.0040175165 -0.0017382707 0.24300002
-0.0033776569 -0.0017382707 0.24300002
-0.0027377973 -0.0017382707 0.24300002
-0.002097938 -0.0017382707 0.24300002
-0.0014580784 -0.0017382707 0.24300002
-0.0008182188 -0.0017382707 0.24300002
-0.00017835929 -0.0017382707 0.24300002
0.00046150025 -0.0017382707 0.24300002
0.0011013598 -0.0017382707 0.24300002
0.0017412193 -0.0017382707 0.24300002
0.0023810789 -0.0017382707 0.24300002
0.0030209383 -0.0017382707 0.24300002
0.0036607981 -0.0017382707 0.24300002
0.0043006577 -0.0017382707 0.24300002
0.017410195 -0.0020816328 0.29100001
0.018176446 -0.0020816328 0.29100001
0.019007795 -0.0020887863 0.29200003
0.019844405 -0.0020959396 0.29300001
0.020615924 -0.0020959396 0.29300001
0.021460436 -0.0021030928 0.294
0.022310214 -0.0021102463 0.29500002
0.02316526 -0.0021173996 0.296
0.023944678 -0.0021173996 0.296
0.024807623 -0.0021245531 0.29700002
0.025675833 -0.0021317063 0.29800001
0.026549313 -0.0021388598 0.29900002
0.027428053 -0.0021460131 0.30000001
0.028312067 -0.0021531666 0.30100003
0.02910465 -0.0021531666 0.30100003
0.029996557 -0.0021603201 0.30200002
0.031796176 -0.0021746268 0.30400002
-0.013028947 -0.0011029314 0.24400002
-0.012386454 -0.0011029314 0.24400002
-0.011695831 -0.0010984112 0.24300002
-0.011055971 -0.0010984112 0.24300002
-0.010416112 -0.0010984112 0.24300002
-0.0097762523 -0.0010984112 0.24300002
-0.0091363927 -0.0010984112 0.24300002
-0.0084615676 -0.001093891 0.24200001
-0.0078566736 -0.0010984112 0.24300002
-0.0071871155 -0.001093891 0.24200001
-0.0065769549 -0.0010984112 0.24300002
-0.0059370948 -0.0010984112 0.24300002
-0.0052972357 -0.0010984112 0.24300002
-0.0046573761 -0.0010984112 0.24300002
-0.0040175165 -0.0010984112 0.24300002
-0.0033776569 -0.0010984112 0.24300002
-0.0027377973 -0.0010984112 0.24300002
-0.002097938 -0.0010984112 0.24300002
-0.0014580784 -0.0010984112 0.24300002
-0.0008182188 -0.0010984112 0.24300002
-0.00017835929 -0.0010984112 0.24300002
0.00046150025 -0.0010984112 0.24300002
0.0010968274 -0.001093891 0.24200001
0.0017340538 -0.001093891 0.24200001
0.0023712802 -0.001093891 0.24200001
0.0030209383 -0.0010984112 0.24300002
0.0036607981 -0.0010984112 0.24300002
0.0043006577 -0.0010984112 0.24300002
0.0049405168 -0.0010984112 0.24300002
0.0055803764 -0.0010984112 0.24300002
0.0062202364 -0.0010984112 0.24300002
0.0068883263 -0.0011029314 0.24400002
0.016586747 -0.0013108611 0.29000002
0.017350366 -0.0013108611 0.29000002
0.018176446 -0.0013153813 0.29100001
0.019007795 -0.0013199016 0.29200003
0.019844405 -0.0013244217 0.29300001
0.020615924 -0.0013244217 0.29300001
0.021460436 -0.0013289419 0.294
0.022310214 -0.0013334622 0.29500002
0.02316526 -0.0013379824 0.296
0.023944678 -0.0013379824 0.296
0.024807623 -0.0013425025 0.29700002
0.025675833 -0.0013470227 0.29800001
0.026549313 -0.001351543 0.29900002
0.027428053 -0.0013560632 0.30000001
0.028312067 -0.0013605835 0.30100003
0.02910465 -0.0013605835 0.30100003
0.029996557 -0.0013651036 0.30200002
-0.01361541 -0.00045855169 0.24300002
-0.012975549 -0.00045855169 0.24300002
-0.012335691 -0.00045855169 0.24300002
-0.011695831 -0.00045855169 0.24300002
-0.011055971 -0.00045855169 0.24300002
-0.010373247 -0.00045666462 0.24200001
-0.009736021 -0.00045666462 0.24200001
-0.0090987943 -0.00045666462 0.24200001
-0.0084615676 -0.00045666462 0.24200001
-0.0078243418 -0.00045666462 0.24200001
-0.0071871155 -0.00045666462 0.24200001
-0.0065498888 -0.00045666462 0.24200001
-0.0059126625 -0.00045666462 0.24200001
-0.0052972357 -0.00045855169 0.24300002
-0.0046573761 -0.00045855169 0.24300002
-0.0040175165 -0.00045855169 0.24300002
-0.0033776569 -0.00045855169 0.24300002
-0.0027377973 -0.00045855169 0.24300002
-0.002097938 -0.00045855169 0.24300002
-0.0014580784 -0.00045855169 0.24300002
-0.00081485161 -0.00045666462 0.24200001
-0.00017762529 -0.00045666462 0.24200001
0.00045960108 -0.00045666462 0.24200001
0.0010968274 -0.00045666462 0.24200001
0.0017340538 -0.00045666462 0.24200001
0.0023712802 -0.00045666462 0.24200001
0.0030085065 -0.00045666462 0.24200001
0.0036607981 -0.00045855169 0.24300002
0.0043006577 -0.00045855169 0.24300002
0.0049405168 -0.00045855169 0.24300002
0.0055803764 -0.00045855169 0.24300002
0.0062458338 -0.00046043872 0.24400002
0.0068883263 -0.00046043872 0.24400002
0.0075308192 -0.00046043872 0.24400002
0.015768565 -0.00054535567 0.289
0.016586747 -0.00054724276 0.29000002
0.017350366 -0.00054724276 0.29000002
0.018176446 -0.00054912979 0.29100001
0.019007795 -0.00055101683 0.29200003
0.019844405 -0.00055290386 0.29300001
0.020615924 -0.00055290386 0.29300001
0.021460436 -0.00055479089 0.294
0.022310214 -0.00055667799 0.29500002
0.02316526 -0.00055856496 0.296
0.023944678 -0.00055856496 0.296
0.024807623 -0.00056045206 0.29700002
0.025675833 -0.00056233909 0.29800001
0.026549313 -0.00056422612 0.29900002
0.027336627 -0.00056422612 0.29900002
0.028218005 -0.00056611316 0.30000001
0.02910465 -0.00056800025 0.30100003
0.029996557 -0.00056988728 0.30200002
0.030893732 -0.00057177426 0.303
0.031796176 -0.00057366135 0.30400002
-0.012284926 0.00018056172 0.24200001
-0.0116477 0.00018056172 0.24200001
-0.011010474 0.00018056172 0.24200001
-0.010373247 0.00018056172 0.24200001
-0.009736021 0.00018056172 0.24200001
-0.0090987943 0.00018056172 0.24200001
-0.0084615676 0.00018056172 0.24200001
-0.0078243418 0.00018056172 0.24200001
-0.0071871155 0.00018056172 0.24200001
-0.0065498888 0.00018056172 0.24200001
-0.0059126625 0.00018056172 0.24200001
-0.0052754362 0.00018056172 0.24200001
-0.0046382099 0.00018056172 0.24200001
-0.0040175165 0.00018130786 0.24300002
-0.0033776569 0.00018130786 0.24300002
-0.0027265307 0.00018056172 0.24200001
-0.0020893044 0.00018056172 0.24200001
-0.0014520781 0.00018056172 0.24200001
-0.00081485161 0.00018056172 0.24200001
-0.00017762529 0.00018056172 0.24200001
0.00045960108 0.00018056172 0.24200001
0.0010968274 0.00018056172 0.24200001
0.0017340538 0.00018056172 0.24200001
0.0023712802 0.00018056172 0.24200001
0.0030085065 0.00018056172 0.24200001
0.003645733 0.00018056172 0.24200001
0.0043006577 0.00018130786 0.24300002
0.0049405168 0.00018130786 0.24300002
0.0055803764 0.00018130786 0.24300002
0.0062458338 0.00018205398 0.24400002
0.0068883263 0.00018205398 0.24400002
0.015768565 0.00021562949 0.289
0.016586747 0.00021637563 0.29000002
0.017350366 0.00021637563 0.29000002
0.018176446 0.00021712173 0.29100001
0.019007795 0.00021786787 0.29200003
0.019776678 0.00021786787 0.29200003
0.020615924 0.00021861399 0.29300001
0.021460436 0.0002193601 0.294
0.022234585 0.0002193601 0.294
0.023086999 0.00022010623 0.29500002
0.023944678 0.00022085235 0.296
0.024807623 0.00022159849 0.29700002
0.025675833 0.00022234459 0.29800001
0.026549313 0.00022309074 0.29900002
0.027336627 0.00022309074 0.29900002
0.028218005 0.00022383685 0.30000001
0.02910465 0.00022458298 0.30100003
0.029996557 0.0002253291 0.30200002
0.030893732 0.00022607521 0.303
0.031796176 0.00022682134 0.30400002
0.032703884 0.00022756746 0.30500001
0.033507001 0.00022756746 0.30500001
0.034310114 0.00022756746 0.30500001
0.03511323 0.00022756746 0.30500001
-0.012922152 0.00081778812 0.24200001
-0.012284926 0.00081778812 0.24200001
-0.0116477 0.00081778812 0.24200001
-0.011010474 0.00081778812 0.24200001
-0.010373247 0.00081778812 0.24200001
-0.009736021 0.00081778812 0.24200001
-0.0090987943 0.00081778812 0.24200001
-0.0084615676 0.00081778812 0.24200001
-0.0078243418 0.00081778812 0.24200001
-0.0071871155 0.00081778812 0.24200001
-0.0065498888 0.00081778812 0.24200001
-0.0059126625 0.00081778812 0.24200001
-0.0052754362 0.00081778812 0.24200001
-0.0046382099 0.00081778812 0.24200001
-0.0040009837 0.00081778812 0.24200001
-0.0033637572 0.00081778812 0.24200001
-0.0027265307 0.00081778812 0.24200001
-0.0020893044 0.00081778812 0.24200001
-0.0014520781 0.00081778812 0.24200001
-0.00081485161 0.00081778812 0.24200001
-0.00017762529 0.00081778812 0.24200001
0.00045960108 0.00081778812 0.24200001
0.0010968274 0.00081778812 0.24200001
0.0017340538 0.00081778812 0.24200001
0.0023712802 0.00081778812 0.24200001
0.0030085065 0.00081778812 0.24200001
0.003645733 0.00081778812 0.24200001
0.0043006577 0.00082116743 0.24300002
0.0049405168 0.00082116743 0.24300002
0.0055803764 0.00082116743 0.24300002
0.0062458338 0.00082454673 0.24400002
0.0068883263 0.00082454673 0.24400002
0.015768565 0.00097661465 0.289
0.016586747 0.00097999407 0.29000002
0.017410195 0.00098337326 0.29100001
0.018176446 0.00098337326 0.29100001
0.019007795 0.00098675268 0.29200003
0.019776678 0.00098675268 0.29200003
0.020615924 0.00099013187 0.29300001
0.021460436 0.00099351117 0.294
0.022310214 0.00099689048 0.29500002
0.023086999 0.00099689048 0.29500002
0.023944678 0.0010002697 0.296
0.024807623 0.0010036491 0.29700002
0.025675833 0.0010070283 0.29800001
0.026460517 0.0010070283 0.29800001
0.027336627 0.0010104077 0.29900002
0.028218005 0.0010137869 0.30000001
0.02910465 0.0010171663 0.30100003
0.029996557 0.0010205455 0.30200002
0.030893732 0.0010239248 0.303
0.031796176 0.0010273041 0.30400002
0.032703884 0.0010306833 0.30500001
0.033507001 0.0010306833 0.30500001
0.034310114 0.0010306833 0.30500001
0.035228357 0.0010340627 0.30600002
0.036034107 0.0010340627 0.30600002
-0.012975549 0.001461027 0.24300002
-0.012284926 0.0014550145 0.24200001
-0.0116477 0.0014550145 0.24200001
-0.011010474 0.0014550145 0.24200001
-0.010373247 0.0014550145 0.24200001
-0.009736021 0.0014550145 0.24200001
-0.0090987943 0.0014550145 0.24200001
-0.0084615676 0.0014550145 0.24200001
-0.0078243418 0.0014550145 0.24200001
-0.0071871155 0.0014550145 0.24200001
-0.0065498888 0.0014550145 0.24200001
-0.0059126625 0.0014550145 0.24200001
-0.0052754362 0.0014550145 0.24200001
-0.0046382099 0.0014550145 0.24200001
-0.0040009837 0.0014550145 0.24200001
-0.0033637572 0.0014550145 0.24200001
-0.0027265307 0.0014550145 0.24200001
-0.0020893044 0.0014550145 0.24200001
-0.0014520781 0.0014550145 0.24200001
-0.00081485161 0.0014550145 0.24200001
-0.00017762529 0.0014550145 0.24200001
0.00045960108 0.0014550145 0.24200001
0.0010968274 0.0014550145 0.24200001
0.0017340538 0.0014550145 0.24200001
0.0023712802 0.0014550145 0.24200001
0.0030085065 0.0014550145 0.24200001
0.003645733 0.0014550145 0.24200001
0.0043006577 0.001461027 0.24300002
0.0049405168 0.001461027 0.24300002
0.0055803764 0.001461027 0.24300002
0.0062458338 0.0014670393 0.24400002
0.0068883263 0.0014670393 0.24400002
0.0075308192 0.0014670393 0.24400002
0.015007581 0.0017375998 0.289
0.015768565 0.0017375998 0.289
0.016586747 0.0017436123 0.29000002
0.017410195 0.0017496247 0.29100001
0.018176446 0.0017496247 0.29100001
0.019007795 0.0017556373 0.29200003
0.019776678 0.0017556373 0.29200003
0.020615924 0.0017616497 0.29300001
0.021460436 0.0017676621 0.294
0.022234585 0.0017676621 0.294
0.023086999 0.0017736746 0.29500002
0.023944678 0.001779687 0.296
0.024807623 0.0017856995 0.29700002
0.025589673 0.0017856995 0.29700002
0.026460517 0.0017917119 0.29800001
0.027336627 0.0017977245 0.29900002
0.028218005 0.0018037369 0.30000001
0.030893732 0.0018217742 0.303
0.031796176 0.0018277868 0.30400002
0.032703884 0.0018337992 0.30500001
0.033507001 0.0018337992 0.30500001
0.034310114 0.0018337992 0.30500001
0.035228357 0.0018398117 0.30600002
0.036034107 0.0018398117 0.30600002
-0.01361541 0.0021008865 0.24300002
-0.012975549 0.0021008865 0.24300002
-0.012284926 0.0020922408 0.24200001
-0.0116477 0.0020922408 0.24200001
-0.011010474 0.0020922408 0.24200001
-0.010373247 0.0020922408 0.24200001
-0.009736021 0.0020922408 0.24200001
-0.0090987943 0.0020922408 0.24200001
-0.0084615676 0.0020922408 0.24200001
-0.0078243418 0.0020922408 0.24200001
-0.0071871155 0.0020922408 0.24200001
-0.0065498888 0.0020922408 0.24200001
-0.0059126625 0.0020922408 0.24200001
-0.0052754362 0.0020922408 0.24200001
-0.0046382099 0.0020922408 0.24200001
-0.0040009837 0.0020922408 0.24200001
-0.0033637572 0.0020922408 0.24200001
-0.0027265307 0.0020922408 0.24200001
-0.0020893044 0.0020922408 0.24200001
-0.0014520781 0.0020922408 0.24200001
-0.00081485161 0.0020922408 0.24200001
-0.00017762529 0.0020922408 0.24200001
0.00045960108 0.0020922408 0.24200001
0.0010968274 0.0020922408 0.24200001
0.0017340538 0.0020922408 0.24200001
0.0023712802 0.0020922408 0.24200001
0.0030085065 0.0020922408 0.24200001
0.003645733 0.0020922408 0.24200001
0.0043006577 0.0021008865 0.24300002
0.0049405168 0.0021008865 0.24300002
0.0055803764 0.0021008865 0.24300002
0.0062458338 0.0021095322 0.24400002
0.0068883263 0.0021095322 0.24400002
0.0075308192 0.0021095322 0.24400002
0.0082068089 0.0021181777 0.245
0.0088519342 0.0021181777 0.245
0.0095358239 0.0021268234 0.24600001
0.015768565 0.002498585 0.289
0.016586747 0.002507231 0.29000002
0.017410195 0.0025158764 0.29100001
0.018176446 0.0025158764 0.29100001
0.019007795 0.0025245221 0.29200003
0.019776678 0.0025245221 0.29200003
0.020615924 0.0025331676 0.29300001
0.021460436 0.0025418131 0.294
0.022234585 0.0025418131 0.294
0.023086999 0.002550459 0.29500002
0.023944678 0.0025591045 0.296
0.024807623 0.0025677502 0.29700002
0.025589673 0.0025677502 0.29700002
0.026460517 0.0025763956 0.29800001
0.027336627 0.0025850416 0.29900002
0.028218005 0.002593687 0.30000001
0.030893732 0.0026196239 0.303
0.031796176 0.0026282696 0.30400002
0.032703884 0.0026369151 0.30500001
0.033507001 0.0026369151 0.30500001
0.034310114 0.0026369151 0.30500001
0.035228357 0.0026455608 0.30600002
0.036034107 0.0026455608 0.30600002
-0.012975549 0.0027407461 0.24300002
-0.012335691 0.0027407461 0.24300002
-0.011695831 0.0027407461 0.24300002
-0.011010474 0.0027294671 0.24200001
-0.010373247 0.0027294671 0.24200001
-0.009736021 0.0027294671 0.24200001
-0.0090987943 0.0027294671 0.24200001
-0.0084615676 0.0027294671 0.24200001
-0.0078243418 0.0027294671 0.24200001
-0.0071871155 0.0027294671 0.24200001
-0.0065498888 0.0027294671 0.24200001
-0.0059126625 0.0027294671 0.24200001
-0.0052754362 0.0027294671 0.24200001
-0.0046382099 0.0027294671 0.24200001
-0.0040009837 0.0027294671 0.24200001
-0.0033637572 0.0027294671 0.24200001
-0.0027265307 0.0027294671 0.24200001
-0.0020893044 0.0027294671 0.24200001
-0.0014520781 0.0027294671 0.24200001
-0.00081485161 0.0027294671 0.24200001
-0.00017762529 0.0027294671 0.24200001
0.00045960108 0.0027294671 0.24200001
0.0010968274 0.0027294671 0.24200001
0.0017340538 0.0027294671 0.24200001
0.0023712802 0.0027294671 0.24200001
0.0030085065 0.0027294671 0.24200001
0.003645733 0.0027294671 0.24200001
0.0043006577 0.0027407461 0.24300002
0.0049405168 0.0027407461 0.24300002
0.0055803764 0.0027407461 0.24300002
0.0062458338 0.0027520249 0.24400002
0.0068883263 0.0027520249 0.24400002
0.0075616832 0.0027633035 0.245
0.0082068089 0.0027633035 0.245
0.0088519342 0.0027633035 0.245
0.0095358239 0.0027745822 0.24600001
0.010183583 0.0027745822 0.24600001
0.010831342 0.0027745822 0.24600001
0.016586747 0.0032708491 0.29000002
0.017410195 0.0032821279 0.29100001
0.018176446 0.0032821279 0.29100001
0.019007795 0.0032934069 0.29200003
0.019776678 0.0032934069 0.29200003
0.020615924 0.0033046855 0.29300001
0.021460436 0.003315964 0.294
0.022234585 0.003315964 0.294
0.023086999 0.003327243 0.29500002
0.023944678 0.0033385218 0.296
0.024807623 0.0033498008 0.29700002
0.025589673 0.0033498008 0.29700002
0.026460517 0.0033610794 0.29800001
0.027336627 0.0033723584 0.29900002
0.028218005 0.0033836369 0.30000001
0.02910465 0.003394916 0.30100003
0.029996557 0.0034061945 0.30200002
0.030893732 0.0034174733 0.303
0.031796176 0.0034287523 0.30400002
0.032703884 0.0034400309 0.30500001
0.033507001 0.0034400309 0.30500001
0.034310114 0.0034400309 0.30500001
0.035228357 0.0034513099 0.30600002
0.036034107 0.0034513099 0.30600002
0.036839854 0.0034513099 0.30600002
-0.012975549 0.0033806055 0.24300002
-0.012335691 0.0033806055 0.24300002
-0.011695831 0.0033806055 0.24300002
-0.011055971 0.0033806055 0.24300002
-0.010373247 0.0033666936 0.24200001
-0.009736021 0.0033666936 0.24200001
-0.0090987943 0.0033666936 0.24200001
-0.0084615676 0.0033666936 0.24200001
-0.0078243418 0.0033666936 0.24200001
-0.0071871155 0.0033666936 0.24200001
-0.0065498888 0.0033666936 0.24200001
-0.0059126625 0.0033666936 0.24200001
-0.0052754362 0.0033666936 0.24200001
-0.0046382099 0.0033666936 0.24200001
-0.0040009837 0.0033666936 0.24200001
-0.0033637572 0.0033666936 0.24200001
-0.0027265307 0.0033666936 0.24200001
-0.0020893044 0.0033666936 0.24200001
-0.0014520781 0.0033666936 0.24200001
-0.00081485161 0.0033666936 0.24200001
-0.00017762529 0.0033666936 0.24200001
0.00045960108 0.0033666936 0.24200001
0.0010968274 0.0033666936 0.24200001
0.0017340538 0.0033666936 0.24200001
0.0023712802 0.0033666936 0.24200001
0.0030085065 0.0033666936 0.24200001
0.003645733 0.0033666936 0.24200001
0.0042829593 0.0033666936 0.24200001
0.0049405168 0.0033806055 0.24300002
0.0055803764 0.0033806055 0.24300002
0.0062458338 0.0033945176 0.24400002
0.0068883263 0.0033945176 0.24400002
0.0075616832 0.0034084292 0.245
0.0082068089 0.0034084292 0.245
0.0088519342 0.0034084292 0.245
0.0095358239 0.0034223413 0.24600001
0.010183583 0.0034223413 0.24600001
0.010831342 0.0034223413 0.24600001
0.016586747 0.0040344675 0.29000002
0.017410195 0.0040483791 0.29100001
0.018176446 0.0040483791 0.29100001
0.019007795 0.0040622917 0.29200003
0.019776678 0.0040622917 0.29200003
0.020615924 0.0040762033 0.29300001
0.021387441 0.0040762033 0.29300001
0.022234585 0.004090115 0.294
0.023086999 0.0041040271 0.29500002
0.023944678 0.0041179392 0.296
0.024807623 0.0041318513 0.29700002
0.025589673 0.0041318513 0.29700002
0.026460517 0.0041457629 0.29800001
0.027336627 0.004159675 0.29900002
0.028218005 0.0041735871 0.30000001
0.02910465 0.0041874992 0.30100003
0.029996557 0.0042014108 0.30200002
0.030893732 0.0042153229 0.303
0.031796176 0.004229235 0.30400002
0.032703884 0.0042431466 0.30500001
0.033507001 0.0042431466 0.30500001
0.034422606 0.0042570587 0.30600002
0.035228357 0.0042570587 0.30600002
0.036034107 0.0042570587 0.30600002
0.036839854 0.0042570587 0.30600002
0.037768628 0.0042709708 0.30700001
-0.012335691 0.0040204651 0.24300002
-0.011695831 0.0040204651 0.24300002
-0.011010474 0.0040039197 0.24200001
-0.010373247 0.0040039197 0.24200001
-0.009736021 0.0040039197 0.24200001
-0.0090987943 0.0040039197 0.24200001
-0.0084615676 0.0040039197 0.24200001
-0.0078243418 0.0040039197 0.24200001
-0.0071871155 0.0040039197 0.24200001
-0.0065498888 0.0040039197 0.24200001
-0.0059126625 0.0040039197 0.24200001
-0.0052754362 0.0040039197 0.24200001
-0.0046382099 0.0040039197 0.24200001
-0.0040009837 0.0040039197 0.24200001
-0.0033637572 0.0040039197 0.24200001
-0.0027265307 0.0040039197 0.24200001
-0.0020893044 0.0040039197 0.24200001
-0.0014520781 0.0040039197 0.24200001
-0.00081485161 0.0040039197 0.24200001
-0.00017762529 0.0040039197 0.24200001
0.00045960108 0.0040039197 0.24200001
0.0010968274 0.0040039197 0.24200001
0.0017340538 0.0040039197 0.24200001
0.0023712802 0.0040039197 0.24200001
0.0030085065 0.0040039197 0.24200001
0.003645733 0.0040039197 0.24200001
0.0042829593 0.0040039197 0.24200001
0.0049405168 0.0040204651 0.24300002
0.0055803764 0.0040204651 0.24300002
0.0062202364 0.0040204651 0.24300002
0.0068883263 0.00403701 0.24400002
0.0075308192 0.00403701 0.24400002
0.0082068089 0.004053555 0.245
0.0088519342 0.004053555 0.245
0.0095358239 0.0040701004 0.24600001
0.010183583 0.0040701004 0.24600001
0.010831342 0.0040701004 0.24600001
0.016586747 0.0047980859 0.29000002
0.017410195 0.0048146308 0.29100001
0.018176446 0.0048146308 0.29100001
0.019007795 0.0048311763 0.29200003
0.019776678 0.0048311763 0.29200003
0.020615924 0.0048477212 0.29300001
0.021387441 0.0048477212 0.29300001
0.022234585 0.0048642661 0.294
0.023086999 0.0048808116 0.29500002
0.023944678 0.0048973565 0.296
0.024807623 0.0049139019 0.29700002
0.025589673 0.0049139019 0.29700002
0.026460517 0.0049304469 0.29800001
0.027336627 0.0049469923 0.29900002
0.028218005 0.0049635367 0.30000001
0.02910465 0.0049800822 0.30100003
0.029996557 0.0049966271 0.30200002
0.030893732 0.005013172 0.303
0.031796176 0.0050297175 0.30400002
0.032703884 0.0050462624 0.30500001
0.033507001 0.0050462624 0.30500001
0.034422606 0.0050628078 0.30600002
0.035228357 0.0050628078 0.30600002
0.036034107 0.0050628078 0.30600002
0.036960244 0.0050793528 0.30700001
0.037768628 0.0050793528 0.30700001
-0.012975549 0.0046603247 0.24300002
-0.011695831 0.0046603247 0.24300002
-0.011055971 0.0046603247 0.24300002
-0.010373247 0.0046411464 0.24200001
-0.009736021 0.0046411464 0.24200001
-0.0090987943 0.0046411464 0.24200001
-0.0084615676 0.0046411464 0.24200001
-0.0078243418 0.0046411464 0.24200001
-0.0071871155 0.0046411464 0.24200001
-0.0065498888 0.0046411464 0.24200001
-0.0059126625 0.0046411464 0.24200001
-0.0052754362 0.0046411464 0.24200001
-0.0046382099 0.0046411464 0.24200001
-0.0040009837 0.0046411464 0.24200001
-0.0033637572 0.0046411464 0.24200001
-0.0027265307 0.0046411464 0.24200001
-0.0020893044 0.0046411464 0.24200001
-0.0014520781 0.0046411464 0.24200001
-0.00081485161 0.0046411464 0.24200001
-0.00017762529 0.0046411464 0.24200001
0.00045960108 0.0046411464 0.24200001
0.0010968274 0.0046411464 0.24200001
0.0017340538 0.0046411464 0.24200001
0.0023712802 0.0046411464 0.24200001
0.0030085065 0.0046411464 0.24200001
0.003645733 0.0046411464 0.24200001
0.0042829593 0.0046411464 0.24200001
0.0049405168 0.0046603247 0.24300002
0.0055803764 0.0046603247 0.24300002
0.0062202364 0.0046603247 0.24300002
0.0068883263 0.0046795029 0.24400002
0.0075308192 0.0046795029 0.24400002
0.0082068089 0.0046986812 0.245
0.0088519342 0.0046986812 0.245
0.0094970604 0.0046986812 0.245
0.010183583 0.0047178594 0.24600001
0.010831342 0.0047178594 0.24600001
0.017410195 0.0055808825 0.29100001
0.018176446 0.0055808825 0.29100001
0.019007795 0.0056000613 0.29200003
0.019776678 0.0056000613 0.29200003
0.020615924 0.0056192391 0.29300001
0.021387441 0.0056192391 0.29300001
0.022234585 0.0056384173 0.294
0.023086999 0.005657596 0.29500002
0.023944678 0.0056767738 0.296
0.025675833 0.0057151304 0.29800001
0.026460517 0.0057151304 0.29800001
0.027336627 0.0057343091 0.29900002
0.028218005 0.0057534873 0.30000001
0.02910465 0.0057726656 0.30100003
0.029996557 0.0057918439 0.30200002
0.030893732 0.0058110221 0.303
0.031796176 0.0058302004 0.30400002
0.032703884 0.0058493786 0.30500001
0.033507001 0.0058493786 0.30500001
0.034422606 0.0058685574 0.30600002
0.035228357 0.0058685574 0.30600002
0.036034107 0.0058685574 0.30600002
0.036960244 0.0058877352 0.30700001
-0.012335691 0.0053001842 0.24300002
-0.011695831 0.0053001842 0.24300002
-0.011055971 0.0053001842 0.24300002
-0.010416112 0.0053001842 0.24300002
-0.0097762523 0.0053001842 0.24300002
-0.0090987943 0.0052783727 0.24200001
-0.0084615676 0.0052783727 0.24200001
-0.0078243418 0.0052783727 0.24200001
-0.0071871155 0.0052783727 0.24200001
-0.0065498888 0.0052783727 0.24200001
-0.0059126625 0.0052783727 0.24200001
-0.0052754362 0.0052783727 0.24200001
-0.0046382099 0.0052783727 0.24200001
-0.0040009837 0.0052783727 0.24200001
-0.0033637572 0.0052783727 0.24200001
-0.0027265307 0.0052783727 0.24200001
-0.0020893044 0.0052783727 0.24200001
-0.0014520781 0.0052783727 0.24200001
-0.00081485161 0.0052783727 0.24200001
-0.00017762529 0.0052783727 0.24200001
0.00045960108 0.0052783727 0.24200001
0.0010968274 0.0052783727 0.24200001
0.0017340538 0.0052783727 0.24200001
0.0023712802 0.0052783727 0.24200001
0.0030085065 0.0052783727 0.24200001
0.003645733 0.0052783727 0.24200001
0.0042829593 0.0052783727 0.24200001
0.0049201855 0.0052783727 0.24200001
0.0055803764 0.0053001842 0.24300002
0.0062202364 0.0053001842 0.24300002
0.0068883263 0.0053219954 0.24400002
0.0075308192 0.0053219954 0.24400002
0.0082068089 0.0053438069 0.245
0.0088519342 0.0053438069 0.245
0.0094970604 0.0053438069 0.245
0.010183583 0.005365618 0.24600001
0.010831342 0.005365618 0.24600001
0.019007795 0.0063689454 0.29200003
0.019776678 0.0063689454 0.29200003
0.020615924 0.0063907569 0.29300001
0.021387441 0.0063907569 0.29300001
0.022234585 0.006412568 0.294
0.023086999 0.0064343796 0.29500002
0.026549313 0.0065216259 0.29900002
0.027428053 0.006543437 0.30000001
0.028312067 0.0065652486 0.30100003
0.029201342 0.0065870597 0.30200002
0.029996557 0.0065870597 0.30200002
0.030893732 0.0066088713 0.303
0.031796176 0.0066306829 0.30400002
0.032703884 0.006652494 0.30500001
0.033507001 0.006652494 0.30500001
0.034422606 0.006674306 0.30600002
0.035228357 0.006674306 0.30600002
0.036034107 0.006674306 0.30600002
-0.012335691 0.0059400438 0.24300002
-0.011695831 0.0059400438 0.24300002
-0.011055971 0.0059400438 0.24300002
-0.010416112 0.0059400438 0.24300002
-0.0097762523 0.0059400438 0.24300002
-0.0090987943 0.0059155989 0.24200001
-0.0084615676 0.0059155989 0.24200001
-0.0078243418 0.0059155989 0.24200001
-0.0071871155 0.0059155989 0.24200001
-0.0065498888 0.0059155989 0.24200001
-0.0059126625 0.0059155989 0.24200001
-0.0052754362 0.0059155989 0.24200001
-0.0046382099 0.0059155989 0.24200001
-0.0040009837 0.0059155989 0.24200001
-0.0033637572 0.0059155989 0.24200001
-0.0027265307 0.0059155989 0.24200001
-0.0020893044 0.0059155989 0.24200001
-0.0014520781 0.0059155989 0.24200001
-0.00081485161 0.0059155989 0.24200001
-0.00017762529 0.0059155989 0.24200001
0.00045960108 0.0059155989 0.24200001
0.0010968274 0.0059155989 0.24200001
0.0017340538 0.0059155989 0.24200001
0.0023712802 0.0059155989 0.24200001
0.0030085065 0.0059155989 0.24200001
0.003645733 0.0059155989 0.24200001
0.0042829593 0.0059155989 0.24200001
0.0049201855 0.0059155989 0.24200001
0.0055803764 0.0059400438 0.24300002
0.0062202364 0.0059400438 0.24300002
0.0068883263 0.0059644883 0.24400002
0.0075308192 0.0059644883 0.24400002
0.0081733121 0.0059644883 0.24400002
0.0088519342 0.0059889327 0.245
0.0094970604 0.0059889327 0.245
0.010142186 0.0059889327 0.245
0.010787312 0.0059889327 0.245
0.030095883 0.0074067209 0.303
0.030995693 0.0074311658 0.30400002
0.031796176 0.0074311658 0.30400002
0.032703884 0.0074556102 0.30500001
0.033507001 0.0074556102 0.30500001
0.034422606 0.0074800551 0.30600002
0.035228357 0.0074800551 0.30600002
0.036034107 0.0074800551 0.30600002
-0.011695831 0.006579903 0.24300002
-0.011055971 0.006579903 0.24300002
-0.010416112 0.006579903 0.24300002
-0.0097762523 0.006579903 0.24300002
-0.0091363927 0.006579903 0.24300002
-0.0084615676 0.0065528252 0.24200001
-0.0078243418 0.0065528252 0.24200001
-0.0071871155 0.0065528252 0.24200001
-0.0065498888 0.0065528252 0.24200001
-0.0059126625 0.0065528252 0.24200001
-0.0052754362 0.0065528252 0.24200001
-0.0046382099 0.0065528252 0.24200001
-0.0040009837 0.0065528252 0.24200001
-0.0033637572 0.0065528252 0.24200001
-0.0027265307 0.0065528252 0.24200001
-0.0020893044 0.0065528252 0.24200001
-0.0014520781 0.0065528252 0.24200001
-0.00081485161 0.0065528252 0.24200001
-0.00017762529 0.0065528252 0.24200001
0.00045960108 0.0065528252 0.24200001
0.0010968274 0.0065528252 0.24200001
0.0017340538 0.0065528252 0.24200001
0.0023712802 0.0065528252 0.24200001
0.0030085065 0.0065528252 0.24200001
0.003645733 0.0065528252 0.24200001
0.0042829593 0.0065528252 0.24200001
0.0049201855 0.0065528252 0.24200001
0.0055574118 0.0065528252 0.24200001
0.0062202364 0.006579903 0.24300002
0.0068883263 0.0066069807 0.24400002
0.0075308192 0.0066069807 0.24400002
0.0081733121 0.0066069807 0.24400002
0.0088519342 0.0066340584 0.245
0.0094970604 0.0066340584 0.245
0.010142186 0.0066340584 0.245
0.010787312 0.0066340584 0.245
0.030095883 0.00820457 0.303
0.030995693 0.0082316482 0.30400002
0.032703884 0.0082587255 0.30500001
0.033507001 0.0082587255 0.30500001
0.034422606 0.0082858037 0.30600002
0.035228357 0.0082858037 0.30600002
-0.010416112 0.0072197625 0.24300002
-0.0097762523 0.0072197625 0.24300002
-0.0091363927 0.0072197625 0.24300002
-0.0084615676 0.007190052 0.24200001
-0.0078566736 0.0072197625 0.24300002
-0.0071871155 0.007190052 0.24200001
-0.0065498888 0.007190052 0.24200001
-0.0059126625 0.007190052 0.24200001
-0.0052754362 0.007190052 0.24200001
-0.0046382099 0.007190052 0.24200001
-0.0040009837 0.007190052 0.24200001
-0.0033637572 0.007190052 0.24200001
-0.0027265307 0.007190052 0.24200001
-0.0020893044 0.007190052 0.24200001
-0.0014520781 0.007190052 0.24200001
-0.00081485161 0.007190052 0.24200001
-0.00017762529 0.007190052 0.24200001
0.00045960108 0.007190052 0.24200001
0.0010968274 0.007190052 0.24200001
0.0017340538 0.007190052 0.24200001
0.0023712802 0.007190052 0.24200001
0.0030085065 0.007190052 0.24200001
0.003645733 0.007190052 0.24200001
0.0042829593 0.007190052 0.24200001
0.0049201855 0.007190052 0.24200001
0.0055574118 0.007190052 0.24200001
0.0062202364 0.0072197625 0.24300002
0.0068600955 0.0072197625 0.24300002
0.0075308192 0.0072494736 0.24400002
0.0081733121 0.0072494736 0.24400002
0.0088158045 0.0072494736 0.24400002
0.0094970604 0.0072791842 0.245
0.010142186 0.0072791842 0.245
-0.0084965331 0.0078596221 0.24300002
-0.0078566736 0.0078596221 0.24300002
-0.0072168144 0.0078596221 0.24300002
-0.0065769549 0.0078596221 0.24300002
-0.0059370948 0.0078596221 0.24300002
-0.0052972357 0.0078596221 0.24300002
-0.0046382099 0.0078272782 0.24200001
-0.0040009837 0.0078272782 0.24200001
-0.0033637572 0.0078272782 0.24200001
-0.0027265307 0.0078272782 0.24200001
-0.0020893044 0.0078272782 0.24200001
-0.0014520781 0.0078272782 0.24200001
-0.00081485161 0.0078272782 0.24200001
-0.00017762529 0.0078272782 0.24200001
0.00045960108 0.0078272782 0.24200001
0.0010968274 0.0078272782 0.24200001
0.0017340538 0.0078272782 0.24200001
0.0023712802 0.0078272782 0.24200001
0.0030085065 0.0078272782 0.24200001
0.003645733 0.0078272782 0.24200001
0.0055574118 0.0078272782 0.24200001
0.0068600955 0.0078596221 0.24300002
0.0088158045 0.007891966 0.24400002
-0.0084965331 0.0084994826 0.24300002
-0.0078243418 0.008464505 0.24200001
-0.0072168144 0.0084994826 0.24300002
-0.0065769549 0.0084994826 0.24300002
-0.0059370948 0.0084994826 0.24300002
0.00045960108 0.008464505 0.24200001
0.0010968274 0.008464505 0.24200001
0.0017340538 0.008464505 0.24200001
0.0023712802 0.008464505 0.24200001
0.0030085065 0.008464505 0.24200001
0.003645733 0.008464505 0.24200001
0.0042829593 0.008464505 0.24200001
0.0049201855 0.008464505 0.24200001
0.0023712802 0.0091017308 0.24200001
0.0030085065 0.0091017308 0.24200001
