# .PCD v0.7 - Point Cloud Data file format
VERSION 0.7
FIELDS x y z
SIZE 4 4 4
TYPE F F F
COUNT 1 1 1
WIDTH 1385
HEIGHT 1
VIEWPOINT 0 0 0 1 0 0 0
POINTS 1385
DATA ascii
0.12660287 -0.10223956 0.31900001
0.12744285 -0.10223956 0.31900001
0.12828282 -0.10223956 0.31900001
0.12912281 -0.10223956 0.31900001
0.1303702 -0.10256007 0.32000002
0.13121282 -0.10256007 0.32000002
0.13246809 -0.10288057 0.32100001
0.13331334 -0.10288057 0.32100001
0.13457653 -0.10320107 0.32200003
0.13542441 -0.10320107 0.32200003
0.1362723 -0.10320107 0.32200003
0.13712017 -0.10320107 0.32200003
0.13796805 -0.10320107 0.32200003
0.13881594 -0.10320107 0.32200003
0.13966382 -0.10320107 0.32200003
0.14007531 -0.10288057 0.32100001
0.14092056 -0.10288057 0.32100001
0.14379027 -0.10191907 0.31800002
0.14462763 -0.10191907 0.31800002
-0.16814803 -0.09090998 0.28600001
-0.16798024 -0.091227844 0.287
-0.16722453 -0.091227844 0.287
-0.16704884 -0.091545716 0.28800002
-0.16686787 -0.091863573 0.289
-0.16668166 -0.092181452 0.29000002
-0.16649017 -0.092499308 0.29100001
-0.16629343 -0.092817187 0.29200003
-0.16609141 -0.093135044 0.29300001
-0.16588411 -0.093452908 0.294
-0.16623315 -0.094088644 0.296
-0.16601272 -0.094406515 0.29700002
-0.16634333 -0.095042251 0.29900002
-0.1661097 -0.095360115 0.30000001
-0.16642188 -0.095995851 0.30200002
-0.16672353 -0.096631587 0.30400002
-0.16646884 -0.096949451 0.30500001
-0.16675207 -0.097585186 0.30700001
-0.16648422 -0.097903058 0.30800003
-0.1662111 -0.098220922 0.30900002
-0.16646799 -0.098856658 0.31100002
-0.16618171 -0.099174522 0.31200001
-0.16642016 -0.099810258 0.31400001
-0.16612071 -0.10012813 0.31500003
-0.16581599 -0.10044599 0.31600001
-0.16602813 -0.10108172 0.31800002
-0.16519079 -0.10108172 0.31800002
-0.16538711 -0.10171746 0.32000002
-0.16505867 -0.10203532 0.32100001
-0.16523658 -0.10267106 0.32300001
-0.16489498 -0.10298892 0.324
-0.16454816 -0.10330679 0.32500002
-0.16469972 -0.10394253 0.32700002
-0.16433969 -0.10426039 0.32800001
-0.16397443 -0.10457826 0.32900003
-0.16360389 -0.10489613 0.33000001
-0.16273493 -0.10489613 0.33000001
-0.1623565 -0.105214 0.33100003
-0.16197279 -0.10553186 0.33200002
-0.16158381 -0.10584973 0.333
-0.16070697 -0.10584973 0.333
-0.16031009 -0.1061676 0.33400002
-0.15943062 -0.1061676 0.33400002
-0.15855114 -0.1061676 0.33400002
-0.15767166 -0.1061676 0.33400002
-0.15679219 -0.1061676 0.33400002
-0.1559127 -0.1061676 0.33400002
-0.15456904 -0.10584973 0.333
-0.14145148 -0.10394253 0.32700002
-0.13631094 -0.10139959 0.31900001
-0.13547096 -0.10139959 0.31900001
-0.13463096 -0.10139959 0.31900001
-0.13379098 -0.10139959 0.31900001
-0.13253425 -0.10108172 0.31800002
-0.13169689 -0.10108172 0.31800002
-0.13085955 -0.10108172 0.31800002
-0.13043107 -0.10139959 0.31900001
-0.12959109 -0.10139959 0.31900001
-0.12875111 -0.10139959 0.31900001
-0.12791114 -0.10139959 0.31900001
-0.12746949 -0.10171746 0.32000002
-0.12662688 -0.10171746 0.32000002
-0.12578428 -0.10171746 0.32000002
-0.12494165 -0.10171746 0.32000002
-0.11820075 -0.10171746 0.32000002
-0.11735814 -0.10171746 0.32000002
-0.11687963 -0.10203532 0.32100001
-0.11603438 -0.10203532 0.32100001
-0.11518914 -0.10203532 0.32100001
-0.11434389 -0.10203532 0.32100001
-0.11349865 -0.10203532 0.32100001
-0.11300435 -0.10235319 0.32200003
-0.11250478 -0.10267106 0.32300001
-0.11199994 -0.10298892 0.324
-0.11148984 -0.10330679 0.32500002
-0.11097448 -0.10362466 0.32600001
-0.11045384 -0.10394253 0.32700002
-0.1095928 -0.10394253 0.32700002
-0.10873175 -0.10394253 0.32700002
-0.10820059 -0.10426039 0.32800001
-0.10700966 -0.10394253 0.32700002
-0.10614862 -0.10394253 0.32700002
-0.10496559 -0.10362466 0.32600001
-0.10378782 -0.10330679 0.32500002
-0.10261533 -0.10298892 0.324
-0.10176219 -0.10298892 0.324
-0.10090904 -0.10298892 0.324
-0.098896571 -0.10267106 0.32300001
-0.097438961 -0.10203532 0.32100001
-0.096894629 -0.10235319 0.32200003
-0.095748469 -0.10203532 0.32100001
-0.087323204 -0.10012813 0.31500003
-0.051454026 -0.096631587 0.30400002
-0.050653543 -0.096631587 0.30400002
-0.048252098 -0.096631587 0.30400002
-0.047451615 -0.096631587 0.30400002
-0.046651132 -0.096631587 0.30400002
-0.045850646 -0.096631587 0.30400002
-0.038841762 -0.099174522 0.31200001
-0.038142074 -0.099492393 0.31300002
-0.037317894 -0.099492393 0.31300002
-0.036493711 -0.099492393 0.31300002
-0.035669532 -0.099492393 0.31300002
-0.034845348 -0.099492393 0.31300002
-0.034021169 -0.099492393 0.31300002
-0.033196986 -0.099492393 0.31300002
-0.032372806 -0.099492393 0.31300002
-0.024715988 -0.098538786 0.31
-0.023899704 -0.098538786 0.31
0.02773108 -0.10553186 0.33200002
0.02869145 -0.10584973 0.333
0.029568296 -0.10584973 0.333
0.030445138 -0.10584973 0.333
0.031321984 -0.10584973 0.333
0.033646639 -0.10489613 0.33000001
0.0343064 -0.10426039 0.32800001
0.035170078 -0.10426039 0.32800001
0.035923898 -0.10394253 0.32700002
0.038153756 -0.10298892 0.324
0.049479313 -0.10171746 0.32000002
0.050321925 -0.10171746 0.32000002
0.051004648 -0.10139959 0.31900001
0.05184463 -0.10139959 0.31900001
0.052519456 -0.10108172 0.31800002
0.0533568 -0.10108172 0.31800002
0.054194149 -0.10108172 0.31800002
0.055031497 -0.10108172 0.31800002
0.05604453 -0.10139959 0.31900001
0.056884512 -0.10139959 0.31900001
0.057724491 -0.10139959 0.31900001
0.058564469 -0.10139959 0.31900001
0.059404448 -0.10139959 0.31900001
0.06024443 -0.10139959 0.31900001
0.061084412 -0.10139959 0.31900001
0.06192439 -0.10139959 0.31900001
0.062567621 -0.10108172 0.31800002
0.063404962 -0.10108172 0.31800002
0.064242311 -0.10108172 0.31800002
0.065079659 -0.10108172 0.31800002
0.065917008 -0.10108172 0.31800002
0.066754356 -0.10108172 0.31800002
0.067804247 -0.10139959 0.31900001
0.068644233 -0.10139959 0.31900001
0.069702037 -0.10171746 0.32000002
0.0707651 -0.10203532 0.32100001
0.071610346 -0.10203532 0.32100001
0.072681315 -0.10235319 0.32200003
0.073529191 -0.10235319 0.32200003
0.074377067 -0.10235319 0.32200003
0.075224951 -0.10235319 0.32200003
0.076072834 -0.10235319 0.32200003
0.076920711 -0.10235319 0.32200003
0.077527069 -0.10203532 0.32100001
0.078128166 -0.10171746 0.32000002
0.078970782 -0.10171746 0.32000002
0.10461023 -0.10044599 0.31600001
0.10544231 -0.10044599 0.31600001
0.10627439 -0.10044599 0.31600001
0.10759698 -0.10012813 0.31500003
0.10842642 -0.10012813 0.31500003
0.10925587 -0.10012813 0.31500003
0.11579255 -0.10076385 0.317
0.11699518 -0.10108172 0.31800002
0.11783252 -0.10108172 0.31800002
0.11904304 -0.10139959 0.31900001
0.11988302 -0.10139959 0.31900001
0.12072301 -0.10139959 0.31900001
0.12194406 -0.10171746 0.32000002
0.12278667 -0.10171746 0.32000002
0.12362929 -0.10171746 0.32000002
0.1244719 -0.10171746 0.32000002
0.12570612 -0.10203532 0.32100001
0.12655136 -0.10203532 0.32100001
0.12739661 -0.10203532 0.32100001
0.12824187 -0.10203532 0.32100001
0.12948926 -0.10235319 0.32200003
0.13033713 -0.10235319 0.32200003
0.13118501 -0.10235319 0.32200003
0.13244294 -0.10267106 0.32300001
0.13329343 -0.10267106 0.32300001
0.13414395 -0.10267106 0.32300001
0.13499446 -0.10267106 0.32300001
0.13626555 -0.10298892 0.324
0.1371187 -0.10298892 0.324
0.13797183 -0.10298892 0.324
0.13882498 -0.10298892 0.324
0.13967814 -0.10298892 0.324
0.14053127 -0.10298892 0.324
0.14138442 -0.10298892 0.324
0.14179857 -0.10267106 0.32300001
0.14220746 -0.10235319 0.32200003
0.14469463 -0.10171746 0.32000002
0.14553724 -0.10171746 0.32000002
0.14637986 -0.10171746 0.32000002
0.14768253 -0.10203532 0.32100001
-0.16814803 -0.090156898 0.28600001
-0.16798024 -0.090472125 0.287
-0.16722453 -0.090472125 0.287
-0.16704884 -0.090787366 0.28800002
-0.16686787 -0.091102593 0.289
-0.16610689 -0.091102593 0.289
-0.16649017 -0.091733061 0.29100001
-0.16629343 -0.092048302 0.29200003
-0.16609141 -0.092363536 0.29300001
-0.16588411 -0.092678763 0.294
-0.16567156 -0.092994004 0.29500002
-0.16601272 -0.093624473 0.29700002
-0.165787 -0.093939699 0.29800001
-0.1661097 -0.094570167 0.30000001
-0.16642188 -0.095200635 0.30200002
-0.16672353 -0.095831111 0.30400002
-0.16646884 -0.096146338 0.30500001
-0.16675207 -0.096776806 0.30700001
-0.16648422 -0.097092047 0.30800003
-0.16674899 -0.097722508 0.31
-0.16646799 -0.098037742 0.31100002
-0.16671436 -0.09866821 0.31300002
-0.16642016 -0.098983444 0.31400001
-0.16612071 -0.099298686 0.31500003
-0.16581599 -0.099613912 0.31600001
-0.16550602 -0.099929139 0.317
-0.16519079 -0.10024438 0.31800002
-0.16538711 -0.10087485 0.32000002
-0.16505867 -0.10119008 0.32100001
-0.16523658 -0.10182055 0.32300001
-0.16540393 -0.10245102 0.32500002
-0.16505446 -0.10276625 0.32600001
-0.16520339 -0.10339672 0.32800001
-0.16484074 -0.10371196 0.32900003
-0.16447282 -0.10402719 0.33000001
-0.16409966 -0.10434242 0.33100003
-0.1637212 -0.10465766 0.33200002
-0.1633375 -0.10497288 0.333
-0.16294853 -0.10528813 0.33400002
-0.16255428 -0.10560335 0.33500001
-0.16167217 -0.10560335 0.33500001
-0.16127004 -0.10591859 0.33600003
-0.1603853 -0.10591859 0.33600003
-0.15997525 -0.10623382 0.33700001
-0.15908787 -0.10623382 0.33700001
-0.1582005 -0.10623382 0.33700001
-0.15731311 -0.10623382 0.33700001
-0.15642574 -0.10623382 0.33700001
-0.13295102 -0.10055961 0.31900001
-0.13211103 -0.10055961 0.31900001
-0.13127105 -0.10055961 0.31900001
-0.13043107 -0.10055961 0.31900001
-0.12959109 -0.10055961 0.31900001
-0.12915473 -0.10087485 0.32000002
-0.12831211 -0.10087485 0.32000002
-0.12746949 -0.10087485 0.32000002
-0.11518914 -0.10119008 0.32100001
-0.11434389 -0.10119008 0.32100001
-0.11349865 -0.10119008 0.32100001
-0.11300435 -0.10150532 0.32200003
-0.11148984 -0.10245102 0.32500002
-0.11131489 -0.10308149 0.32700002
-0.11079162 -0.10339672 0.32800001
-0.11026309 -0.10371196 0.32900003
-0.10939678 -0.10371196 0.32900003
-0.10712245 -0.10402719 0.33000001
-0.10324876 -0.10276625 0.32600001
-0.10215483 -0.10339672 0.32800001
-0.038966257 -0.09866821 0.31300002
-0.038142074 -0.09866821 0.31300002
-0.037317894 -0.09866821 0.31300002
-0.036493711 -0.09866821 0.31300002
-0.035669532 -0.09866821 0.31300002
-0.034845348 -0.09866821 0.31300002
-0.034021169 -0.09866821 0.31300002
-0.033196986 -0.09866821 0.31300002
0.028949933 -0.10591859 0.33600003
0.029923471 -0.10623382 0.33700001
0.030810846 -0.10623382 0.33700001
0.031698223 -0.10623382 0.33700001
0.032488912 -0.10591859 0.33600003
0.033174999 -0.10528813 0.33400002
0.033952519 -0.10497288 0.333
0.034620181 -0.10434242 0.33100003
0.035384528 -0.10402719 0.33000001
0.03614362 -0.10371196 0.32900003
0.050321925 -0.10087485 0.32000002
0.051164541 -0.10087485 0.32000002
0.052007154 -0.10087485 0.32000002
0.052684609 -0.10055961 0.31900001
0.053524587 -0.10055961 0.31900001
0.054364566 -0.10055961 0.31900001
0.055204548 -0.10055961 0.31900001
0.05604453 -0.10055961 0.31900001
0.056884512 -0.10055961 0.31900001
0.057724491 -0.10055961 0.31900001
0.058564469 -0.10055961 0.31900001
0.059404448 -0.10055961 0.31900001
0.06024443 -0.10055961 0.31900001
0.061084412 -0.10055961 0.31900001
0.06192439 -0.10055961 0.31900001
0.062764376 -0.10055961 0.31900001
0.063604347 -0.10055961 0.31900001
0.064444333 -0.10055961 0.31900001
0.065079659 -0.10024438 0.31800002
0.065917008 -0.10024438 0.31800002
0.066754356 -0.10024438 0.31800002
0.067804247 -0.10055961 0.31900001
0.068644233 -0.10055961 0.31900001
0.069919847 -0.10119008 0.32100001
0.0707651 -0.10119008 0.32100001
0.071833432 -0.10150532 0.32200003
0.072907031 -0.10182055 0.32300001
0.073757537 -0.10182055 0.32300001
0.07460805 -0.10182055 0.32300001
0.075458564 -0.10182055 0.32300001
0.076309077 -0.10182055 0.32300001
0.077159591 -0.10182055 0.32300001
0.077768594 -0.10150532 0.32200003
0.11820306 -0.10055961 0.31900001
0.11941623 -0.10087485 0.32000002
0.12025884 -0.10087485 0.32000002
0.12110145 -0.10087485 0.32000002
0.12194406 -0.10087485 0.32000002
0.12317038 -0.10119008 0.32100001
0.12440198 -0.10150532 0.32200003
0.12524985 -0.10150532 0.32200003
0.12648934 -0.10182055 0.32300001
0.12733985 -0.10182055 0.32300001
0.12819037 -0.10182055 0.32300001
0.12944038 -0.10213578 0.324
0.13029352 -0.10213578 0.324
0.13114667 -0.10213578 0.324
0.13199982 -0.10213578 0.324
0.13326301 -0.10245102 0.32500002
0.1341188 -0.10245102 0.32500002
0.13497457 -0.10245102 0.32500002
0.13583034 -0.10245102 0.32500002
0.13668613 -0.10245102 0.32500002
0.13796511 -0.10276625 0.32600001
0.13882352 -0.10276625 0.32600001
0.13968192 -0.10276625 0.32600001
0.14097145 -0.10308149 0.32700002
0.1418325 -0.10308149 0.32700002
0.14269355 -0.10308149 0.32700002
0.1435546 -0.10308149 0.32700002
0.14441565 -0.10308149 0.32700002
0.1448324 -0.10276625 0.32600001
0.14569081 -0.10276625 0.32600001
0.1460997 -0.10245102 0.32500002
0.14775217 -0.10182055 0.32300001
0.14860266 -0.10182055 0.32300001
-0.16814803 -0.089403808 0.28600001
-0.16798024 -0.089716405 0.287
-0.16722453 -0.089716405 0.287
-0.16704884 -0.090029009 0.28800002
-0.16686787 -0.090341605 0.289
-0.16610689 -0.090341605 0.289
-0.16649017 -0.090966806 0.29100001
-0.16629343 -0.09127941 0.29200003
-0.16609141 -0.091592006 0.29300001
-0.16588411 -0.091904603 0.294
-0.16567156 -0.092217214 0.29500002
-0.16601272 -0.092842415 0.29700002
-0.165787 -0.093155012 0.29800001
-0.1661097 -0.093780212 0.30000001
-0.16642188 -0.09440542 0.30200002
-0.1661751 -0.094718017 0.303
-0.16646884 -0.095343217 0.30500001
-0.16620891 -0.095655821 0.30600002
-0.16648422 -0.096281022 0.30800003
-0.16674899 -0.096906215 0.31
-0.16646799 -0.097218826 0.31100002
-0.16671436 -0.097844027 0.31300002
-0.16642016 -0.098156624 0.31400001
-0.16612071 -0.098469228 0.31500003
-0.16634072 -0.099094421 0.317
-0.16550602 -0.099094421 0.317
-0.16571024 -0.099719629 0.31900001
-0.16538711 -0.10003223 0.32000002
-0.16557288 -0.10065743 0.32200003
-0.16523658 -0.10097003 0.32300001
-0.16540393 -0.10159523 0.32500002
-0.16556077 -0.10222044 0.32700002
-0.16520339 -0.10253303 0.32800001
-0.16534176 -0.10315824 0.33000001
-0.16497123 -0.10347084 0.33100003
-0.16459543 -0.10378344 0.33200002
-0.16421434 -0.10409603 0.333
-0.1643185 -0.10472124 0.33500001
-0.16392428 -0.10503384 0.33600003
-0.16352476 -0.10534644 0.33700001
-0.16263738 -0.10534644 0.33700001
-0.16222998 -0.10565905 0.33800003
-0.16133997 -0.10565905 0.33800003
-0.16092466 -0.10597164 0.33900002
-0.16003202 -0.10597164 0.33900002
-0.15913938 -0.10597164 0.33900002
-0.15781826 -0.10628424 0.34
-0.15378001 -0.10784725 0.34500003
-0.15287158 -0.10784725 0.34500003
-0.1116553 -0.10253303 0.32800001
-0.1111294 -0.10284564 0.32900003
-0.11059824 -0.10315824 0.33000001
-0.1100618 -0.10347084 0.33100003
-0.10952011 -0.10378344 0.33200002
-0.1086459 -0.10378344 0.33200002
-0.10809629 -0.10409603 0.333
-0.10721945 -0.10409603 0.333
-0.10458892 -0.10409603 0.333
-0.10184339 -0.10222044 0.32700002
-0.10052098 -0.10534644 0.33700001
-0.087717712 -0.11284886 0.36100003
-0.086767137 -0.11284886 0.36100003
-0.085816562 -0.11284886 0.36100003
-0.084865987 -0.11284886 0.36100003
-0.084147871 -0.11316146 0.36200002
-0.0040672631 -0.11284886 0.36100003
-0.0031166896 -0.11284886 0.36100003
-0.0021661166 -0.11284886 0.36100003
0.028566351 -0.10690944 0.34200001
0.029466895 -0.10690944 0.34200001
0.030278647 -0.10659684 0.34100002
0.031176554 -0.10659684 0.34100002
0.034933958 -0.10440864 0.33400002
0.035706207 -0.10409603 0.333
0.052684609 -0.099719629 0.31900001
0.053524587 -0.099719629 0.31900001
0.054364566 -0.099719629 0.31900001
0.055204548 -0.099719629 0.31900001
0.05604453 -0.099719629 0.31900001
0.056884512 -0.099719629 0.31900001
0.057724491 -0.099719629 0.31900001
0.058564469 -0.099719629 0.31900001
0.059404448 -0.099719629 0.31900001
0.060433287 -0.10003223 0.32000002
0.061275903 -0.10003223 0.32000002
0.062118515 -0.10003223 0.32000002
0.062764376 -0.099719629 0.31900001
0.063604347 -0.099719629 0.31900001
0.064444333 -0.099719629 0.31900001
0.065284312 -0.099719629 0.31900001
0.06612429 -0.099719629 0.31900001
0.066964276 -0.099719629 0.31900001
0.067804247 -0.099719629 0.31900001
0.068859421 -0.10003223 0.32000002
0.074839033 -0.10128263 0.324
0.075692184 -0.10128263 0.324
0.076545328 -0.10128263 0.324
0.077398472 -0.10128263 0.324
0.078251623 -0.10128263 0.324
0.078860618 -0.10097003 0.32300001
0.08031223 -0.10065743 0.32200003
0.11941623 -0.10003223 0.32000002
0.12063464 -0.10034483 0.32100001
0.13494414 -0.10222044 0.32700002
0.13538986 -0.10190783 0.32600001
0.13666622 -0.10222044 0.32700002
0.13794784 -0.10253303 0.32800001
0.13881153 -0.10253303 0.32800001
0.14010105 -0.10284564 0.32900003
0.14139582 -0.10315824 0.33000001
0.14269589 -0.10347084 0.33100003
0.14400119 -0.10378344 0.33200002
0.14531177 -0.10409603 0.333
0.14618862 -0.10409603 0.333
0.14706546 -0.10409603 0.333
0.14749804 -0.10378344 0.33200002
0.14837225 -0.10378344 0.33200002
0.14879693 -0.10347084 0.33100003
-0.16814803 -0.088650726 0.28600001
-0.16798024 -0.088960685 0.287
-0.16722453 -0.088960685 0.287
-0.16704884 -0.089270659 0.28800002
-0.16686787 -0.089580625 0.289
-0.16610689 -0.089580625 0.289
-0.16649017 -0.090200558 0.29100001
-0.16629343 -0.090510532 0.29200003
-0.16609141 -0.090820499 0.29300001
-0.16588411 -0.091130458 0.294
-0.16567156 -0.091440432 0.29500002
-0.16601272 -0.092060365 0.29700002
-0.16642188 -0.093610205 0.30200002
-0.1661751 -0.093920171 0.303
-0.16646884 -0.094540104 0.30500001
-0.16620891 -0.094850078 0.30600002
-0.1662111 -0.095779978 0.30900002
-0.16646799 -0.096399911 0.31100002
-0.16671436 -0.097019851 0.31300002
-0.16642016 -0.09732981 0.31400001
-0.16612071 -0.097639784 0.31500003
-0.16581599 -0.097949751 0.31600001
-0.16550602 -0.09825971 0.317
-0.16571024 -0.09887965 0.31900001
-0.16538711 -0.099189624 0.32000002
-0.16557288 -0.099809557 0.32200003
-0.16574813 -0.10042948 0.324
-0.16540393 -0.10073946 0.32500002
-0.16556077 -0.1013594 0.32700002
-0.16520339 -0.10166936 0.32800001
-0.16534176 -0.1022893 0.33000001
-0.16497123 -0.10259927 0.33100003
-0.16509119 -0.1032192 0.333
-0.16470748 -0.10352917 0.33400002
-0.16480902 -0.1041491 0.33600003
-0.16441214 -0.10445907 0.33700001
-0.16401 -0.10476904 0.33800003
-0.16360259 -0.105079 0.33900002
-0.1631899 -0.10538897 0.34
-0.16229463 -0.10538897 0.34
-0.16187407 -0.10569894 0.34100002
-0.16144823 -0.1060089 0.34200001
-0.16054769 -0.1060089 0.34200001
-0.16011395 -0.10631888 0.34300002
-0.15921077 -0.10631888 0.34300002
-0.15553021 -0.10879862 0.35100001
-0.15372501 -0.10817868 0.34900001
-0.15324388 -0.10848865 0.35000002
-0.15183324 -0.10879862 0.35100001
-0.15133895 -0.10910858 0.35200003
-0.11233613 -0.1022893 0.33000001
-0.11180496 -0.10259927 0.33100003
-0.11160367 -0.1032192 0.333
-0.11072682 -0.1032192 0.333
-0.11050975 -0.10383913 0.33500001
-0.10995489 -0.1041491 0.33600003
-0.10939474 -0.10445907 0.33700001
-0.10850737 -0.10445907 0.33700001
-0.10793934 -0.10476904 0.33800003
-0.10647341 -0.105079 0.33900002
-0.10558076 -0.105079 0.33900002
-0.10442057 -0.10662884 0.34400001
-0.10321385 -0.10631888 0.34300002
-0.099797942 -0.11158832 0.36000001
-0.093162358 -0.11158832 0.36000001
-0.092214413 -0.11158832 0.36000001
-0.091266476 -0.11158832 0.36000001
-0.090318546 -0.11158832 0.36000001
-0.089370593 -0.11158832 0.36000001
-0.088422664 -0.11158832 0.36000001
-0.087474719 -0.11158832 0.36000001
-0.086526781 -0.11158832 0.36000001
-0.085816562 -0.1118983 0.36100003
-0.084865987 -0.1118983 0.36100003
-0.084147871 -0.11220825 0.36200002
-0.083194658 -0.11220825 0.36200002
-0.082241453 -0.11220825 0.36200002
-0.081288248 -0.11220825 0.36200002
-0.077475421 -0.11220825 0.36200002
-0.075360253 -0.1118983 0.36100003
-0.0078477561 -0.11158832 0.36000001
-0.0069189826 -0.1118983 0.36100003
-0.0059684096 -0.1118983 0.36100003
-0.0050178361 -0.1118983 0.36100003
-0.0040672631 -0.1118983 0.36100003
-0.0031166896 -0.1118983 0.36100003
-0.0021661166 -0.1118983 0.36100003
-0.0012155431 -0.1118983 0.36100003
-0.00026496997 -0.1118983 0.36100003
0.0006856033 -0.1118983 0.36100003
0.029067516 -0.10786872 0.34800002
0.02998386 -0.10786872 0.34800002
0.030811407 -0.10755874 0.347
0.03163369 -0.10724878 0.34600002
0.032450706 -0.10693881 0.34500003
0.033165764 -0.10631888 0.34300002
0.033870284 -0.10569894 0.34100002
0.035352331 -0.10476904 0.33800003
0.055204548 -0.09887965 0.31900001
0.056220222 -0.099189624 0.32000002
0.074214242 -0.10073946 0.32500002
0.075070024 -0.10073946 0.32500002
0.077637359 -0.10073946 0.32500002
0.078493141 -0.10073946 0.32500002
0.11066494 -0.10972852 0.354
0.11346138 -0.10972852 0.354
0.11439351 -0.10972852 0.354
0.11565143 -0.11003848 0.35500002
0.12873827 -0.11003848 0.35500002
0.12967305 -0.11003848 0.35500002
0.12987201 -0.10941855 0.35300002
0.13337632 -0.10848865 0.35000002
0.13429792 -0.10848865 0.35000002
0.13351065 -0.10290923 0.33200002
0.13485168 -0.10259927 0.33100003
0.13531321 -0.1022893 0.33000001
0.13576949 -0.10197933 0.32900003
0.1366358 -0.10197933 0.32900003
0.1375021 -0.10197933 0.32900003
0.13878898 -0.1022893 0.33000001
0.13965793 -0.1022893 0.33000001
0.14137855 -0.10290923 0.33200002
0.14268123 -0.1032192 0.333
0.14398919 -0.10352917 0.33400002
0.1453024 -0.10383913 0.33500001
0.1466209 -0.1041491 0.33600003
0.14750564 -0.1041491 0.33600003
0.15105221 -0.10538897 0.34
0.1532882 -0.10631888 0.34300002
0.15374184 -0.1060089 0.34200001
0.15464237 -0.1060089 0.34200001
-0.16814803 -0.087897629 0.28600001
-0.16798024 -0.088204965 0.287
-0.16780719 -0.088512301 0.28800002
-0.16704884 -0.088512301 0.28800002
-0.16686787 -0.08881963 0.289
-0.16668166 -0.089126974 0.29000002
-0.16649017 -0.089434303 0.29100001
-0.16629343 -0.08974164 0.29200003
-0.16609141 -0.090048969 0.29300001
-0.16588411 -0.090356305 0.294
-0.16567156 -0.090663642 0.29500002
-0.1661751 -0.093122311 0.303
-0.16646884 -0.093736984 0.30500001
-0.16620891 -0.09404432 0.30600002
-0.16671436 -0.096195661 0.31300002
-0.16642016 -0.096502997 0.31400001
-0.16612071 -0.096810333 0.31500003
-0.16581599 -0.097117662 0.31600001
-0.16550602 -0.097424991 0.317
-0.16571024 -0.098039664 0.31900001
-0.16538711 -0.098347001 0.32000002
-0.16557288 -0.098961674 0.32200003
-0.16574813 -0.099576332 0.324
-0.16540393 -0.099883676 0.32500002
-0.16556077 -0.10049834 0.32700002
-0.16570707 -0.10111301 0.32900003
-0.16534176 -0.10142034 0.33000001
-0.16546963 -0.10203502 0.33200002
-0.16509119 -0.10234234 0.333
-0.16520061 -0.10295702 0.33500001
-0.16480902 -0.10326435 0.33600003
-0.16490002 -0.10387903 0.33800003
-0.16449523 -0.10418636 0.33900002
-0.16408519 -0.10449369 0.34
-0.16366988 -0.10480102 0.34100002
-0.16324931 -0.10510836 0.34200001
-0.16282348 -0.10541569 0.34300002
-0.16239236 -0.10572302 0.34400001
-0.16148657 -0.10572302 0.34400001
-0.16104756 -0.10603037 0.34500003
-0.16060328 -0.1063377 0.34600002
-0.16015784 -0.1072597 0.34900001
-0.15734592 -0.10848904 0.35300002
-0.15641642 -0.10848904 0.35300002
-0.15504645 -0.10818171 0.35200003
-0.15455741 -0.10848904 0.35300002
-0.15362789 -0.10848904 0.35300002
-0.15313095 -0.10879637 0.354
-0.15262876 -0.1091037 0.35500002
-0.15212129 -0.10941104 0.35600001
-0.1409498 -0.11094771 0.36100003
-0.11315607 -0.10295702 0.33500001
-0.11205687 -0.10357168 0.33700001
-0.11149939 -0.10387903 0.33800003
-0.11093663 -0.10418636 0.33900002
-0.1106932 -0.10480102 0.34100002
-0.10624186 -0.10756703 0.35000002
-0.10562116 -0.10787436 0.35100001
-0.10330195 -0.11033305 0.35900003
-0.098849997 -0.11064038 0.36000001
-0.095322296 -0.11094771 0.36100003
-0.094110295 -0.11064038 0.36000001
-0.093162358 -0.11064038 0.36000001
-0.092214413 -0.11064038 0.36000001
-0.091266476 -0.11064038 0.36000001
-0.090318546 -0.11064038 0.36000001
-0.089370593 -0.11064038 0.36000001
-0.088422664 -0.11064038 0.36000001
-0.087474719 -0.11064038 0.36000001
-0.086767137 -0.11094771 0.36100003
-0.085816562 -0.11094771 0.36100003
-0.084865987 -0.11094771 0.36100003
-0.08391542 -0.11094771 0.36100003
-0.083194658 -0.11125504 0.36200002
-0.082241453 -0.11125504 0.36200002
-0.081288248 -0.11125504 0.36200002
-0.080556959 -0.11156238 0.36300001
-0.079601116 -0.11156238 0.36300001
-0.078428626 -0.11125504 0.36200002
-0.077475421 -0.11125504 0.36200002
-0.076522216 -0.11125504 0.36200002
-0.075360253 -0.11094771 0.36100003
-0.074409679 -0.11094771 0.36100003
-0.073255613 -0.11064038 0.36000001
-0.072307684 -0.11064038 0.36000001
-0.041973598 -0.11064038 0.36000001
-0.041025657 -0.11064038 0.36000001
-0.020884262 -0.10941104 0.35600001
-0.020002887 -0.10971837 0.35700002
-0.0097436365 -0.11064038 0.36000001
-0.0087956963 -0.11064038 0.36000001
-0.0078477561 -0.11064038 0.36000001
-0.006899816 -0.11064038 0.36000001
-0.0059684096 -0.11094771 0.36100003
-0.0050178361 -0.11094771 0.36100003
-0.0040672631 -0.11094771 0.36100003
-0.0031166896 -0.11094771 0.36100003
-0.0021661166 -0.11094771 0.36100003
-0.0012155431 -0.11094771 0.36100003
-0.00026496997 -0.11094771 0.36100003
0.0006856033 -0.11094771 0.36100003
0.0016361766 -0.11094771 0.36100003
0.002579584 -0.11064038 0.36000001
0.0035275242 -0.11064038 0.36000001
0.0044754641 -0.11064038 0.36000001
0.0054234043 -0.11064038 0.36000001
0.0063713444 -0.11064038 0.36000001
0.024837615 -0.10848904 0.35300002
0.028474754 -0.10818171 0.35200003
0.029401626 -0.10818171 0.35200003
0.030242341 -0.10787436 0.35100001
0.031166583 -0.10787436 0.35100001
0.031999398 -0.10756703 0.35000002
0.032732885 -0.10695236 0.34800002
0.033552535 -0.10664503 0.347
0.034366917 -0.1063377 0.34600002
0.035176035 -0.10603037 0.34500003
0.074510455 -0.10264968 0.33400002
0.073809907 -0.10049834 0.32700002
0.074442588 -0.100191 0.32600001
0.10847795 -0.10941104 0.35600001
0.10941537 -0.10941104 0.35600001
0.11004279 -0.1091037 0.35500002
0.11097756 -0.1091037 0.35500002
0.11191234 -0.1091037 0.35500002
0.11284711 -0.1091037 0.35500002
0.11378189 -0.1091037 0.35500002
0.11471666 -0.1091037 0.35500002
0.11565143 -0.1091037 0.35500002
0.11691462 -0.10941104 0.35600001
0.11785202 -0.10941104 0.35600001
0.12228481 -0.1100257 0.35800001
0.1235717 -0.11033305 0.35900003
0.12451701 -0.11033305 0.35900003
0.12546231 -0.11033305 0.35900003
0.12605551 -0.1100257 0.35800001
0.12699819 -0.1100257 0.35800001
0.12794085 -0.1100257 0.35800001
0.12852353 -0.10971837 0.35700002
0.12910092 -0.10941104 0.35600001
0.13117205 -0.10879637 0.354
0.13173102 -0.10848904 0.35300002
0.13413846 -0.10818171 0.35200003
0.13468163 -0.10787436 0.35100001
0.13443619 -0.10480102 0.34100002
0.13454036 -0.10418636 0.33900002
0.135433 -0.10418636 0.33900002
0.1359235 -0.10387903 0.33800003
0.13640873 -0.10357168 0.33700001
0.1364813 -0.10295702 0.33500001
0.1373634 -0.10295702 0.33500001
0.13783285 -0.10264968 0.33400002
0.1374664 -0.10172769 0.33100003
0.13833798 -0.10172769 0.33100003
0.13963014 -0.10203502 0.33200002
0.14092755 -0.10234234 0.333
0.14223024 -0.10264968 0.33400002
0.14353818 -0.10295702 0.33500001
0.1448514 -0.10326435 0.33600003
0.14616989 -0.10357168 0.33700001
0.15057868 -0.10541569 0.34300002
-0.16814803 -0.087144546 0.28600001
-0.16798024 -0.087449245 0.287
-0.16780719 -0.087753952 0.28800002
-0.16704884 -0.087753952 0.28800002
-0.16686787 -0.08805865 0.289
-0.16668166 -0.088363357 0.29000002
-0.16649017 -0.088668056 0.29100001
-0.16629343 -0.088972762 0.29200003
-0.16609141 -0.089277461 0.29300001
-0.16588411 -0.089582153 0.294
-0.16567156 -0.089886859 0.29500002
-0.16601272 -0.090496264 0.29700002
-0.165787 -0.090800963 0.29800001
-0.1661097 -0.091410369 0.30000001
-0.16587082 -0.091715075 0.30100003
-0.1661751 -0.092324466 0.303
-0.16592306 -0.092629172 0.30400002
-0.16620891 -0.093238577 0.30600002
-0.16618171 -0.095066778 0.31200001
-0.16642016 -0.095676184 0.31400001
-0.16612071 -0.09598089 0.31500003
-0.16581599 -0.096285589 0.31600001
-0.16550602 -0.096590281 0.317
-0.16571024 -0.097199686 0.31900001
-0.16538711 -0.097504392 0.32000002
-0.16557288 -0.098113798 0.32200003
-0.16574813 -0.098723195 0.324
-0.16540393 -0.099027902 0.32500002
-0.16556077 -0.0996373 0.32700002
-0.16570707 -0.10024671 0.32900003
-0.16584282 -0.10085611 0.33100003
-0.16546963 -0.10116081 0.33200002
-0.16558696 -0.10177021 0.33400002
-0.16569376 -0.10237961 0.33600003
-0.1652995 -0.10268431 0.33700001
-0.16538788 -0.10329372 0.33900002
-0.16498046 -0.10359842 0.34
-0.1645678 -0.10390312 0.34100002
-0.16414985 -0.10420781 0.34200001
-0.16372666 -0.10451252 0.34300002
-0.16329817 -0.10481722 0.34400001
-0.16333652 -0.10542662 0.34600002
-0.16242544 -0.10542662 0.34600002
-0.16244796 -0.10603603 0.34800002
-0.1619958 -0.10634072 0.34900001
-0.16153836 -0.10664543 0.35000002
-0.16107565 -0.10695013 0.35100001
-0.15965594 -0.10786423 0.354
-0.1587238 -0.10786423 0.354
-0.15779166 -0.10786423 0.354
-0.15685952 -0.10786423 0.354
-0.15592737 -0.10786423 0.354
-0.15499523 -0.10786423 0.354
-0.15406309 -0.10786423 0.354
-0.15356353 -0.10816894 0.35500002
-0.15305871 -0.10847363 0.35600001
-0.1525486 -0.10877834 0.35700002
-0.15203324 -0.10908303 0.35800001
-0.15109055 -0.10908303 0.35800001
-0.14570267 -0.10999715 0.36100003
-0.1447521 -0.10999715 0.36100003
-0.14380154 -0.10999715 0.36100003
-0.14285095 -0.10999715 0.36100003
-0.14190039 -0.10999715 0.36100003
-0.1409498 -0.10999715 0.36100003
-0.14038704 -0.11030184 0.36200002
-0.13943385 -0.11030184 0.36200002
-0.13752742 -0.11030184 0.36200002
-0.13695148 -0.11060654 0.36300001
-0.13562101 -0.11030184 0.36200002
-0.13466781 -0.11030184 0.36200002
-0.13180818 -0.11030184 0.36200002
-0.13085498 -0.11030184 0.36200002
-0.12990178 -0.11030184 0.36200002
-0.12894857 -0.11030184 0.36200002
-0.12799536 -0.11030184 0.36200002
-0.11380855 -0.10512193 0.34500003
-0.11322735 -0.10542662 0.34600002
-0.11231627 -0.10542662 0.34600002
-0.11204916 -0.10603603 0.34800002
-0.11145215 -0.10634072 0.34900001
-0.1108499 -0.10664543 0.35000002
-0.10715251 -0.10755953 0.35300002
-0.10682482 -0.10816894 0.35500002
-0.10618833 -0.10847363 0.35600001
-0.10554658 -0.10877834 0.35700002
-0.10460653 -0.10877834 0.35700002
-0.10424726 -0.10938774 0.35900003
-0.10292688 -0.10999715 0.36100003
-0.10197631 -0.10999715 0.36100003
-0.10007516 -0.10999715 0.36100003
-0.099124581 -0.10999715 0.36100003
-0.098174013 -0.10999715 0.36100003
-0.097223446 -0.10999715 0.36100003
-0.096272863 -0.10999715 0.36100003
-0.095322296 -0.10999715 0.36100003
-0.094371721 -0.10999715 0.36100003
-0.093421146 -0.10999715 0.36100003
-0.092470571 -0.10999715 0.36100003
-0.091520004 -0.10999715 0.36100003
-0.090569429 -0.10999715 0.36100003
-0.089618854 -0.10999715 0.36100003
-0.088668287 -0.10999715 0.36100003
-0.087717712 -0.10999715 0.36100003
-0.086767137 -0.10999715 0.36100003
-0.085816562 -0.10999715 0.36100003
-0.084865987 -0.10999715 0.36100003
-0.084147871 -0.11030184 0.36200002
-0.083194658 -0.11030184 0.36200002
-0.082468636 -0.11060654 0.36300001
-0.081512794 -0.11060654 0.36300001
-0.080556959 -0.11060654 0.36300001
-0.079601116 -0.11060654 0.36300001
-0.078428626 -0.11030184 0.36200002
-0.077475421 -0.11030184 0.36200002
-0.076522216 -0.11030184 0.36200002
-0.075360253 -0.10999715 0.36100003
-0.074203558 -0.10969244 0.36000001
-0.073255613 -0.10969244 0.36000001
-0.072307684 -0.10969244 0.36000001
-0.071161523 -0.10938774 0.35900003
-0.06042463 -0.10877834 0.35700002
-0.05948459 -0.10877834 0.35700002
-0.058544546 -0.10877834 0.35700002
-0.05776586 -0.10908303 0.35800001
-0.037337326 -0.10999715 0.36100003
-0.036386754 -0.10999715 0.36100003
-0.035436179 -0.10999715 0.36100003
-0.034390077 -0.10969244 0.36000001
-0.021944262 -0.10908303 0.35800001
-0.021001589 -0.10908303 0.35800001
-0.020058915 -0.10908303 0.35800001
-0.019116241 -0.10908303 0.35800001
-0.018224332 -0.10938774 0.35900003
-0.017279027 -0.10938774 0.35900003
-0.010691577 -0.10969244 0.36000001
-0.0097436365 -0.10969244 0.36000001
-0.0087956963 -0.10969244 0.36000001
-0.0078477561 -0.10969244 0.36000001
-0.006899816 -0.10969244 0.36000001
-0.0059684096 -0.10999715 0.36100003
-0.0050178361 -0.10999715 0.36100003
-0.0040672631 -0.10999715 0.36100003
-0.0031166896 -0.10999715 0.36100003
-0.0021661166 -0.10999715 0.36100003
-0.0012155431 -0.10999715 0.36100003
-0.00026496997 -0.10999715 0.36100003
0.0006856033 -0.10999715 0.36100003
0.0016361766 -0.10999715 0.36100003
0.0025867498 -0.10999715 0.36100003
0.0035275242 -0.10969244 0.36000001
0.0044754641 -0.10969244 0.36000001
0.0054234043 -0.10969244 0.36000001
0.0063713444 -0.10969244 0.36000001
0.0073192841 -0.10969244 0.36000001
0.024907975 -0.10786423 0.354
0.029652208 -0.10816894 0.35500002
0.030586982 -0.10816894 0.35500002
0.031432964 -0.10786423 0.354
0.032273676 -0.10755953 0.35300002
0.033109125 -0.10725483 0.35200003
0.03568583 -0.10664543 0.35000002
0.036607441 -0.10664543 0.35000002
0.060068347 -0.10908303 0.35800001
0.065907978 -0.10938774 0.35900003
0.078632608 -0.10999715 0.36100003
0.097914554 -0.11030184 0.36200002
0.11191234 -0.10816894 0.35500002
0.11284711 -0.10816894 0.35500002
0.11378189 -0.10816894 0.35500002
0.1150398 -0.10847363 0.35600001
0.11597721 -0.10847363 0.35600001
0.11691462 -0.10847363 0.35600001
0.11785202 -0.10847363 0.35600001
0.11912312 -0.10877834 0.35700002
0.12006316 -0.10877834 0.35700002
0.12134213 -0.10908303 0.35800001
0.12228481 -0.10908303 0.35800001
0.1235717 -0.10938774 0.35900003
0.12451701 -0.10938774 0.35900003
0.12546231 -0.10938774 0.35900003
0.12640762 -0.10938774 0.35900003
0.12699819 -0.10908303 0.35800001
0.12794085 -0.10908303 0.35800001
0.12852353 -0.10877834 0.35700002
0.12946355 -0.10877834 0.35700002
0.13003832 -0.10847363 0.35600001
0.13097572 -0.10847363 0.35600001
0.13154259 -0.10816894 0.35500002
0.13210419 -0.10786423 0.354
0.13266052 -0.10755953 0.35300002
0.13359004 -0.10755953 0.35300002
0.13451955 -0.10755953 0.35300002
0.13506535 -0.10725483 0.35200003
0.13560587 -0.10695013 0.35100001
0.13614114 -0.10664543 0.35000002
0.13667114 -0.10634072 0.34900001
0.13719587 -0.10603603 0.34800002
0.1369216 -0.10512193 0.34500003
0.13783005 -0.10512193 0.34500003
0.13833633 -0.10481722 0.34400001
0.13933314 -0.10420781 0.34200001
0.1402337 -0.10420781 0.34200001
0.14072156 -0.10390312 0.34100002
0.14120415 -0.10359842 0.34
0.14042769 -0.10237961 0.33600003
0.14177397 -0.10207491 0.33500001
0.15098462 -0.10542662 0.34600002
0.15233468 -0.10573132 0.347
0.15369004 -0.10603603 0.34800002
0.15549493 -0.10664543 0.35000002
0.15731034 -0.10725483 0.35200003
-0.16814803 -0.086391471 0.28600001
-0.16798024 -0.086693533 0.287
-0.16780719 -0.086995602 0.28800002
-0.16704884 -0.086995602 0.28800002
-0.16686787 -0.087297671 0.289
-0.16668166 -0.087599739 0.29000002
-0.16649017 -0.087901808 0.29100001
-0.16629343 -0.088203877 0.29200003
-0.16609141 -0.088505946 0.29300001
-0.16588411 -0.088808008 0.294
-0.16567156 -0.089110084 0.29500002
-0.16601272 -0.089714222 0.29700002
-0.165787 -0.090016283 0.29800001
-0.1661097 -0.090620421 0.30000001
-0.16587082 -0.09092249 0.30100003
-0.1661751 -0.09152662 0.303
-0.16592306 -0.091828696 0.30400002
-0.16620891 -0.092432834 0.30600002
-0.16618171 -0.094245233 0.31200001
-0.16642016 -0.09484937 0.31400001
-0.16612071 -0.095151447 0.31500003
-0.16581599 -0.095453508 0.31600001
-0.16550602 -0.095755577 0.317
-0.16571024 -0.096359715 0.31900001
-0.16538711 -0.096661784 0.32000002
-0.16557288 -0.097265922 0.32200003
-0.16574813 -0.097870052 0.324
-0.16591287 -0.09847419 0.32600001
-0.16606706 -0.099078327 0.32800001
-0.16570707 -0.099380396 0.32900003
-0.16584282 -0.099984534 0.33100003
-0.16596803 -0.10058866 0.333
-0.16558696 -0.10089073 0.33400002
-0.16569376 -0.10149487 0.33600003
-0.16579002 -0.10209901 0.33800003
-0.16538788 -0.10240108 0.33900002
-0.16546571 -0.10300522 0.34100002
-0.1650504 -0.10330728 0.34200001
-0.16462983 -0.10360935 0.34300002
-0.16468133 -0.10421349 0.34500003
-0.16424759 -0.10451555 0.34600002
-0.16380857 -0.10481761 0.347
-0.16336432 -0.10511969 0.34800002
-0.16291477 -0.10542175 0.34900001
-0.16292414 -0.10602589 0.35100001
-0.1619999 -0.10602589 0.35100001
-0.16199346 -0.10663003 0.35300002
-0.16152023 -0.10693209 0.354
-0.16058809 -0.10693209 0.354
-0.16010696 -0.10723417 0.35500002
-0.15917218 -0.10723417 0.35500002
-0.15823741 -0.10723417 0.35500002
-0.15730263 -0.10723417 0.35500002
-0.15636785 -0.10723417 0.35500002
-0.15543309 -0.10723417 0.35500002
-0.15449831 -0.10723417 0.35500002
-0.15399611 -0.10753623 0.35600001
-0.15348865 -0.1078383 0.35700002
-0.1525486 -0.1078383 0.35700002
-0.15203324 -0.10814036 0.35800001
-0.15151261 -0.10844244 0.35900003
-0.14229345 -0.10934864 0.36200002
-0.14134024 -0.10934864 0.36200002
-0.13943385 -0.10934864 0.36200002
-0.13848063 -0.10934864 0.36200002
-0.13790733 -0.10965071 0.36300001
-0.13695148 -0.10965071 0.36300001
-0.13599564 -0.10965071 0.36300001
-0.13503981 -0.10965071 0.36300001
-0.1337146 -0.10934864 0.36200002
-0.13276139 -0.10934864 0.36200002
-0.13180818 -0.10934864 0.36200002
-0.13085498 -0.10934864 0.36200002
-0.12990178 -0.10934864 0.36200002
-0.12894857 -0.10934864 0.36200002
-0.12799536 -0.10934864 0.36200002
-0.12704214 -0.10934864 0.36200002
-0.11453634 -0.10572383 0.35000002
-0.11393934 -0.10602589 0.35100001
-0.1130151 -0.10602589 0.35100001
-0.1124102 -0.10632797 0.35200003
-0.11180004 -0.10663003 0.35300002
-0.11118462 -0.10693209 0.354
-0.11025247 -0.10693209 0.354
-0.10932034 -0.10693209 0.354
-0.10869437 -0.10723417 0.35500002
-0.1077596 -0.10723417 0.35500002
-0.10712573 -0.10753623 0.35600001
-0.10648662 -0.1078383 0.35700002
-0.10554658 -0.1078383 0.35700002
-0.10489955 -0.10814036 0.35800001
-0.10424726 -0.10844244 0.35900003
-0.10197631 -0.10904658 0.36100003
-0.10007516 -0.10904658 0.36100003
-0.099124581 -0.10904658 0.36100003
-0.098174013 -0.10904658 0.36100003
-0.097223446 -0.10904658 0.36100003
-0.096272863 -0.10904658 0.36100003
-0.095322296 -0.10904658 0.36100003
-0.094371721 -0.10904658 0.36100003
-0.093421146 -0.10904658 0.36100003
-0.092470571 -0.10904658 0.36100003
-0.091520004 -0.10904658 0.36100003
-0.090569429 -0.10904658 0.36100003
-0.089618854 -0.10904658 0.36100003
-0.088668287 -0.10904658 0.36100003
-0.087717712 -0.10904658 0.36100003
-0.086767137 -0.10904658 0.36100003
-0.085816562 -0.10904658 0.36100003
-0.085101068 -0.10934864 0.36200002
-0.084147871 -0.10934864 0.36200002
-0.083424479 -0.10965071 0.36300001
-0.082468636 -0.10965071 0.36300001
-0.081512794 -0.10965071 0.36300001
-0.080556959 -0.10965071 0.36300001
-0.079601116 -0.10965071 0.36300001
-0.078645281 -0.10965071 0.36300001
-0.077475421 -0.10934864 0.36200002
-0.076522216 -0.10934864 0.36200002
-0.075360253 -0.10904658 0.36100003
-0.074409679 -0.10904658 0.36100003
-0.073255613 -0.1087445 0.36000001
-0.072307684 -0.1087445 0.36000001
-0.071161523 -0.10844244 0.35900003
-0.070020624 -0.10814036 0.35800001
-0.069077946 -0.10814036 0.35800001
-0.067944951 -0.1078383 0.35700002
-0.066064872 -0.1078383 0.35700002
-0.065124832 -0.1078383 0.35700002
-0.064005002 -0.10753623 0.35600001
-0.062304709 -0.1078383 0.35700002
-0.061536558 -0.10814036 0.35800001
-0.060593884 -0.10814036 0.35800001
-0.059651211 -0.10814036 0.35800001
-0.058708537 -0.10814036 0.35800001
-0.057927221 -0.10844244 0.35900003
-0.056981917 -0.10844244 0.35900003
-0.0561927 -0.1087445 0.36000001
-0.055244759 -0.1087445 0.36000001
-0.047793631 -0.10904658 0.36100003
-0.045892488 -0.10904658 0.36100003
-0.044941913 -0.10904658 0.36100003
-0.043991338 -0.10904658 0.36100003
-0.043040764 -0.10904658 0.36100003
-0.042090192 -0.10904658 0.36100003
-0.041139618 -0.10904658 0.36100003
-0.040189046 -0.10904658 0.36100003
-0.039238475 -0.10904658 0.36100003
-0.0382879 -0.10904658 0.36100003
-0.037337326 -0.10904658 0.36100003
-0.036386754 -0.10904658 0.36100003
-0.035436179 -0.10904658 0.36100003
-0.034485608 -0.10904658 0.36100003
-0.022950869 -0.10844244 0.35900003
-0.02200556 -0.10844244 0.35900003
-0.021060254 -0.10844244 0.35900003
-0.020114947 -0.10844244 0.35900003
-0.01916964 -0.10844244 0.35900003
-0.018275097 -0.1087445 0.36000001
-0.017327156 -0.1087445 0.36000001
-0.016379217 -0.1087445 0.36000001
-0.015431277 -0.1087445 0.36000001
-0.012587456 -0.1087445 0.36000001
-0.010691577 -0.1087445 0.36000001
-0.0097436365 -0.1087445 0.36000001
-0.0087956963 -0.1087445 0.36000001
-0.0078477561 -0.1087445 0.36000001
-0.0069189826 -0.10904658 0.36100003
-0.0059684096 -0.10904658 0.36100003
-0.0050178361 -0.10904658 0.36100003
-0.0040672631 -0.10904658 0.36100003
-0.0031166896 -0.10904658 0.36100003
-0.0021661166 -0.10904658 0.36100003
-0.0012155431 -0.10904658 0.36100003
-0.00026496997 -0.10904658 0.36100003
0.0006856033 -0.10904658 0.36100003
0.0016361766 -0.10904658 0.36100003
0.0025867498 -0.10904658 0.36100003
0.0035373229 -0.10904658 0.36100003
0.0044878963 -0.10904658 0.36100003
0.0054384698 -0.10904658 0.36100003
0.0063890428 -0.10904658 0.36100003
0.0073396158 -0.10904658 0.36100003
0.025048697 -0.10753623 0.35600001
0.026059102 -0.1078383 0.35700002
0.02699914 -0.1078383 0.35700002
0.028879223 -0.1078383 0.35700002
0.029819263 -0.1078383 0.35700002
0.030759305 -0.1078383 0.35700002
0.031610552 -0.10753623 0.35600001
0.032547954 -0.10753623 0.35600001
0.037130404 -0.10723417 0.35500002
0.059290834 -0.10844244 0.35900003
0.060236137 -0.10844244 0.35900003
0.06101102 -0.10814036 0.35800001
0.061953694 -0.10814036 0.35800001
0.06514363 -0.1087445 0.36000001
0.066091567 -0.1087445 0.36000001
0.067039505 -0.1087445 0.36000001
0.074698351 -0.11025485 0.36500001
0.075659454 -0.11025485 0.36500001
0.076620564 -0.11025485 0.36500001
0.077581666 -0.11025485 0.36500001
0.078542769 -0.11025485 0.36500001
0.079503879 -0.11025485 0.36500001
0.080244534 -0.10995278 0.36400002
0.081203014 -0.10995278 0.36400002
0.082161486 -0.10995278 0.36400002
0.11066275 -0.1078383 0.35700002
0.11129017 -0.10753623 0.35600001
0.11222758 -0.10753623 0.35600001
0.11316498 -0.10753623 0.35600001
0.1141024 -0.10753623 0.35600001
0.1150398 -0.10753623 0.35600001
0.11597721 -0.10753623 0.35600001
0.11724304 -0.1078383 0.35700002
0.11818308 -0.1078383 0.35700002
0.11912312 -0.1078383 0.35700002
0.12039946 -0.10814036 0.35800001
0.12134213 -0.10814036 0.35800001
0.12262639 -0.10844244 0.35900003
0.1235717 -0.10844244 0.35900003
0.12451701 -0.10844244 0.35900003
0.12546231 -0.10844244 0.35900003
0.12640762 -0.10844244 0.35900003
0.12735292 -0.10844244 0.35900003
0.12829824 -0.10844244 0.35900003
0.12888353 -0.10814036 0.35800001
0.1298262 -0.10814036 0.35800001
0.13134365 -0.1078383 0.35700002
0.13191313 -0.10753623 0.35600001
0.13247737 -0.10723417 0.35500002
0.13341214 -0.10723417 0.35500002
0.13490061 -0.10693209 0.354
0.13544905 -0.10663003 0.35300002
0.13599223 -0.10632797 0.35200003
0.1369191 -0.10632797 0.35200003
0.13745436 -0.10602589 0.35100001
0.13837859 -0.10602589 0.35100001
0.13890597 -0.10572383 0.35000002
0.13982758 -0.10572383 0.35000002
0.14034703 -0.10542175 0.34900001
0.14269394 -0.10511969 0.34800002
0.14867984 -0.10481761 0.347
0.15045577 -0.10542175 0.34900001
0.15137474 -0.10542175 0.34900001
0.15273009 -0.10572383 0.35000002
0.15452972 -0.10632797 0.35200003
0.15589823 -0.10663003 0.35300002
0.157272 -0.10693209 0.354
0.15865104 -0.10723417 0.35500002
0.16093443 -0.10814036 0.35800001
0.16232929 -0.10844244 0.35900003
0.1632746 -0.10844244 0.35900003
0.16940503 -0.10934864 0.36200002
0.16988765 -0.10904658 0.36100003
0.17083821 -0.10904658 0.36100003
-0.16814803 -0.085638374 0.28600001
-0.16798024 -0.085937805 0.287
-0.16780719 -0.086237244 0.28800002
-0.16704884 -0.086237244 0.28800002
-0.16686787 -0.086536676 0.289
-0.16668166 -0.086836122 0.29000002
-0.16649017 -0.087135553 0.29100001
-0.16629343 -0.087434992 0.29200003
-0.16609141 -0.087734424 0.29300001
-0.16588411 -0.088033855 0.294
-0.16567156 -0.088333294 0.29500002
-0.16601272 -0.088932164 0.29700002
-0.165787 -0.089231595 0.29800001
-0.1661097 -0.089830466 0.30000001
-0.16587082 -0.090129904 0.30100003
-0.16562667 -0.090429336 0.30200002
-0.16592306 -0.091028206 0.30400002
-0.16566573 -0.091327637 0.30500001
-0.16594368 -0.091926508 0.30700001
-0.1662111 -0.092525378 0.30900002
-0.16646799 -0.093124248 0.31100002
-0.16618171 -0.093423679 0.31200001
-0.16642016 -0.09402255 0.31400001
-0.16612071 -0.094321996 0.31500003
-0.16581599 -0.09462142 0.31600001
-0.16550602 -0.094920851 0.317
-0.16571024 -0.095519729 0.31900001
-0.16538711 -0.095819168 0.32000002
-0.16557288 -0.096418038 0.32200003
-0.16574813 -0.097016901 0.324
-0.16591287 -0.097615771 0.32600001
-0.16606706 -0.098214641 0.32800001
-0.16621073 -0.098813511 0.33000001
-0.16634384 -0.099412382 0.33200002
-0.16596803 -0.099711813 0.333
-0.16608272 -0.10031068 0.33500001
-0.16569376 -0.10061012 0.33600003
-0.16579002 -0.10120899 0.33800003
-0.16587575 -0.10180786 0.34
-0.16546571 -0.10210729 0.34100002
-0.16553301 -0.10270617 0.34300002
-0.1651098 -0.1030056 0.34400001
-0.16468133 -0.10330504 0.34500003
-0.16472229 -0.1039039 0.347
-0.16428065 -0.10420334 0.34800002
-0.16383375 -0.10450277 0.34900001
-0.16338158 -0.10480221 0.35000002
-0.16292414 -0.10510164 0.35100001
-0.16292298 -0.10570052 0.35300002
-0.16245237 -0.10599995 0.354
-0.1619765 -0.10629939 0.35500002
-0.16104172 -0.10629939 0.35500002
-0.16055796 -0.10659882 0.35600001
-0.15962054 -0.10659882 0.35600001
-0.15868314 -0.10659882 0.35600001
-0.15774573 -0.10659882 0.35600001
-0.15680832 -0.10659882 0.35600001
-0.15587091 -0.10659882 0.35600001
-0.15536872 -0.10689826 0.35700002
-0.15442869 -0.10689826 0.35700002
-0.15391858 -0.10719769 0.35800001
-0.1529759 -0.10719769 0.35800001
-0.15245791 -0.10749713 0.35900003
-0.15193464 -0.10779656 0.36000001
-0.1509867 -0.10779656 0.36000001
-0.15045555 -0.108096 0.36100003
-0.14991911 -0.10839543 0.36200002
-0.1489659 -0.10839543 0.36200002
-0.14842156 -0.10869486 0.36300001
-0.14077485 -0.10869486 0.36300001
-0.13981901 -0.10869486 0.36300001
-0.13886316 -0.10869486 0.36300001
-0.13790733 -0.10869486 0.36300001
-0.13695148 -0.10869486 0.36300001
-0.13599564 -0.10869486 0.36300001
-0.13503981 -0.10869486 0.36300001
-0.13408397 -0.10869486 0.36300001
-0.13312814 -0.10869486 0.36300001
-0.13217229 -0.10869486 0.36300001
-0.13121645 -0.10869486 0.36300001
-0.13026062 -0.10869486 0.36300001
-0.12930477 -0.10869486 0.36300001
-0.12834893 -0.10869486 0.36300001
-0.1273931 -0.10869486 0.36300001
-0.12608895 -0.10839543 0.36200002
-0.11523779 -0.10629939 0.35500002
-0.11430302 -0.10629939 0.35500002
-0.11336824 -0.10629939 0.35500002
-0.11275018 -0.10659882 0.35600001
-0.1114987 -0.10629939 0.35500002
-0.11087537 -0.10659882 0.35600001
-0.10993797 -0.10659882 0.35600001
-0.10900055 -0.10659882 0.35600001
-0.1083667 -0.10689826 0.35700002
-0.10742665 -0.10689826 0.35700002
-0.1067849 -0.10719769 0.35800001
-0.10613788 -0.10749713 0.35900003
-0.10519256 -0.10749713 0.35900003
-0.10453764 -0.10779656 0.36000001
-0.10387745 -0.108096 0.36100003
-0.10292688 -0.108096 0.36100003
-0.10225879 -0.10839543 0.36200002
-0.10130557 -0.10839543 0.36200002
-0.10035238 -0.10839543 0.36200002
-0.099124581 -0.108096 0.36100003
-0.098174013 -0.108096 0.36100003
-0.097223446 -0.108096 0.36100003
-0.096272863 -0.108096 0.36100003
-0.095322296 -0.108096 0.36100003
-0.094371721 -0.108096 0.36100003
-0.093421146 -0.108096 0.36100003
-0.092470571 -0.108096 0.36100003
-0.091520004 -0.108096 0.36100003
-0.090569429 -0.108096 0.36100003
-0.089618854 -0.108096 0.36100003
-0.088668287 -0.108096 0.36100003
-0.08796069 -0.10839543 0.36200002
-0.087007485 -0.10839543 0.36200002
-0.08605428 -0.10839543 0.36200002
-0.085101068 -0.10839543 0.36200002
-0.084380314 -0.10869486 0.36300001
-0.083424479 -0.10869486 0.36300001
-0.082468636 -0.10869486 0.36300001
-0.081512794 -0.10869486 0.36300001
-0.080556959 -0.10869486 0.36300001
-0.079601116 -0.10869486 0.36300001
-0.078645281 -0.10869486 0.36300001
-0.077689439 -0.10869486 0.36300001
-0.076522216 -0.10839543 0.36200002
-0.075569004 -0.10839543 0.36200002
-0.074409679 -0.108096 0.36100003
-0.073459104 -0.108096 0.36100003
-0.072307684 -0.10779656 0.36000001
-0.071359739 -0.10779656 0.36000001
-0.070216209 -0.10749713 0.35900003
-0.069077946 -0.10719769 0.35800001
-0.068135269 -0.10719769 0.35800001
-0.067192599 -0.10719769 0.35800001
-0.066064872 -0.10689826 0.35700002
-0.065124832 -0.10689826 0.35700002
