# .PCD v0.7 - Point Cloud Data file format
VERSION 0.7
FIELDS x y z
SIZE 4 4 4
TYPE F F F
COUNT 1 1 1
WIDTH 1326
HEIGHT 1
VIEWPOINT 0 0 0 1 0 0 0
POINTS 1326
DATA ascii
-0.058393553 -0.00065103016 0.34500003
-0.057318483 -0.00064914307 0.34400001
-0.056412671 -0.00064914307 0.34400001
-0.055506863 -0.00064914307 0.34400001
-0.054601055 -0.00064914307 0.34400001
-0.053539157 -0.00064725609 0.34300002
-0.052635979 -0.00064725609 0.34300002
-0.051732805 -0.00064725609 0.34300002
-0.050829627 -0.00064725609 0.34300002
-0.049926449 -0.00064725609 0.34300002
-0.049166199 -0.00064914307 0.34400001
-0.048260391 -0.00064914307 0.34400001
-0.047354579 -0.00064914307 0.34400001
-0.046448767 -0.00064914307 0.34400001
-0.045542959 -0.00064914307 0.34400001
-0.044637147 -0.00064914307 0.34400001
-0.043731343 -0.00064914307 0.34400001
-0.042825531 -0.00064914307 0.34400001
-0.041919723 -0.00064914307 0.34400001
-0.041013911 -0.00064914307 0.34400001
-0.040224701 -0.00065103016 0.34500003
-0.039316256 -0.00065103016 0.34500003
-0.03851914 -0.0006529172 0.34600002
-0.037608065 -0.0006529172 0.34600002
-0.036803048 -0.00065480423 0.347
-0.035992768 -0.00065669126 0.34800002
-0.03517722 -0.0006585783 0.34900001
-0.034258243 -0.0006585783 0.34900001
-0.033434801 -0.00066046539 0.35000002
-0.03251319 -0.00066046539 0.35000002
-0.028662032 -0.00065669126 0.34800002
-0.02766596 -0.00065480423 0.347
-0.026598061 -0.00065103016 0.34500003
-0.025689617 -0.00065103016 0.34500003
-0.021544408 -0.00063593377 0.33700001
-0.020595733 -0.0006340468 0.33600003
-0.019652326 -0.0006321597 0.33500001
-0.018714184 -0.00063027267 0.33400002
-0.017834706 -0.00063027267 0.33400002
-0.016904464 -0.00062838558 0.333
-0.01602762 -0.00062838558 0.333
-0.015150775 -0.00062838558 0.333
-0.014231066 -0.0006264986 0.33200002
-0.013316624 -0.00062461157 0.33100003
-0.012445046 -0.00062461157 0.33100003
-0.0070629804 -0.00061140221 0.324
-0.0061906683 -0.00060951518 0.32300001
-0.0053236228 -0.00060762814 0.32200003
-0.0044618431 -0.00060574111 0.32100001
-0.0036053299 -0.00060385407 0.32000002
-0.00023340844 -0.00060007995 0.31800002
0.0071649277 -0.00058875768 0.31200001
0.0079864757 -0.00058875768 0.31200001
0.0088080233 -0.00058875768 0.31200001
0.0096295718 -0.00058875768 0.31200001
0.010451119 -0.00058875768 0.31200001
0.011272667 -0.00058875768 0.31200001
0.012094216 -0.00058875768 0.31200001
0.012915764 -0.00058875768 0.31200001
0.013737312 -0.00058875768 0.31200001
0.014512198 -0.00058687065 0.31100002
0.015331112 -0.00058687065 0.31100002
0.016150028 -0.00058687065 0.31100002
0.016968941 -0.00058687065 0.31100002
0.017787857 -0.00058687065 0.31100002
0.018606771 -0.00058687065 0.31100002
0.019425686 -0.00058687065 0.31100002
0.020309696 -0.00058875768 0.31200001
0.021131244 -0.00058875768 0.31200001
0.021952791 -0.00058875768 0.31200001
0.022774341 -0.00058875768 0.31200001
0.023595886 -0.00058875768 0.31200001
0.024417436 -0.00058875768 0.31200001
0.025238985 -0.00058875768 0.31200001
0.026060531 -0.00058875768 0.31200001
0.02688208 -0.00058875768 0.31200001
0.027703628 -0.00058875768 0.31200001
0.028525176 -0.00058875768 0.31200001
0.029346725 -0.00058875768 0.31200001
0.030168273 -0.00058875768 0.31200001
0.03098982 -0.00058875768 0.31200001
0.031811368 -0.00058875768 0.31200001
0.032632917 -0.00058875768 0.31200001
0.033347238 -0.00058687065 0.31100002
0.034166154 -0.00058687065 0.31100002
0.049221136 -0.00059064478 0.31300002
0.05416622 -0.00059064478 0.31300002
0.054990403 -0.00059064478 0.31300002
0.070275798 -0.00069254509 0.36700001
0.071048051 -0.00069065811 0.36600003
0.072208546 -0.00069254509 0.36700001
0.073174909 -0.00069254509 0.36700001
0.074141286 -0.00069254509 0.36700001
0.075107656 -0.00069254509 0.36700001
0.075866744 -0.00069065811 0.36600003
0.077040404 -0.00069254509 0.36700001
0.078006774 -0.00069254509 0.36700001
0.078973144 -0.00069254509 0.36700001
0.079721704 -0.00069065811 0.36600003
0.080685444 -0.00069065811 0.36600003
0.081649184 -0.00069065811 0.36600003
0.082612924 -0.00069065811 0.36600003
0.083576657 -0.00069065811 0.36600003
0.084540397 -0.00069065811 0.36600003
0.085504137 -0.00069065811 0.36600003
0.086467877 -0.00069065811 0.36600003
0.087431617 -0.00069065811 0.36600003
0.088395357 -0.00069065811 0.36600003
0.08935909 -0.00069065811 0.36600003
0.09032283 -0.00069065811 0.36600003
0.09128657 -0.00069065811 0.36600003
0.09225031 -0.00069065811 0.36600003
0.093214042 -0.00069065811 0.36600003
0.09417779 -0.00069065811 0.36600003
0.095141523 -0.00069065811 0.36600003
0.09610527 -0.00069065811 0.36600003
0.097069003 -0.00069065811 0.36600003
0.098032743 -0.00069065811 0.36600003
0.098996483 -0.00069065811 0.36600003
0.099960223 -0.00069065811 0.36600003
0.10092396 -0.00069065811 0.36600003
0.1018877 -0.00069065811 0.36600003
0.10285144 -0.00069065811 0.36600003
0.10381518 -0.00069065811 0.36600003
0.10477892 -0.00069065811 0.36600003
0.10574266 -0.00069065811 0.36600003
0.1067064 -0.00069065811 0.36600003
0.10767013 -0.00069065811 0.36600003
0.10863388 -0.00069065811 0.36600003
0.10989705 -0.00069254509 0.36700001
0.11086343 -0.00069254509 0.36700001
0.1118298 -0.00069254509 0.36700001
0.11279618 -0.00069254509 0.36700001
0.11376254 -0.00069254509 0.36700001
0.11472891 -0.00069254509 0.36700001
0.11569529 -0.00069254509 0.36700001
0.11666166 -0.00069254509 0.36700001
0.11762804 -0.00069254509 0.36700001
0.11859441 -0.00069254509 0.36700001
0.11956077 -0.00069254509 0.36700001
0.12052716 -0.00069254509 0.36700001
0.12149352 -0.00069254509 0.36700001
0.1224599 -0.00069254509 0.36700001
0.12342627 -0.00069254509 0.36700001
0.12439264 -0.00069254509 0.36700001
0.12501743 -0.00069065811 0.36600003
0.12598117 -0.00069065811 0.36600003
0.12694491 -0.00069065811 0.36600003
0.12825812 -0.00069254509 0.36700001
0.12922451 -0.00069254509 0.36700001
0.13019088 -0.00069254509 0.36700001
0.13115723 -0.00069254509 0.36700001
0.13212362 -0.00069254509 0.36700001
0.13308999 -0.00069254509 0.36700001
0.13405636 -0.00069254509 0.36700001
0.13502273 -0.00069254509 0.36700001
0.1359891 -0.00069254509 0.36700001
0.13658231 -0.00069065811 0.36600003
0.13754605 -0.00069065811 0.36600003
0.1385098 -0.00069065811 0.36600003
0.13947353 -0.00069065811 0.36600003
0.14043726 -0.00069065811 0.36600003
0.14140101 -0.00069065811 0.36600003
0.14236474 -0.00069065811 0.36600003
0.14332849 -0.00069065811 0.36600003
0.14429222 -0.00069065811 0.36600003
0.14525597 -0.00069065811 0.36600003
0.1462197 -0.00069065811 0.36600003
0.14758557 -0.00069254509 0.36700001
0.14855194 -0.00069254509 0.36700001
0.14911091 -0.00069065811 0.36600003
0.15007466 -0.00069065811 0.36600003
0.15103839 -0.00069065811 0.36600003
0.15200213 -0.00069065811 0.36600003
0.15296587 -0.00069065811 0.36600003
0.15392961 -0.00069065811 0.36600003
0.15489335 -0.00069065811 0.36600003
0.15585709 -0.00069065811 0.36600003
0.15682082 -0.00069065811 0.36600003
0.15778457 -0.00069065811 0.36600003
0.1587483 -0.00069065811 0.36600003
0.15971205 -0.00069065811 0.36600003
0.16067578 -0.00069065811 0.36600003
0.16163953 -0.00069065811 0.36600003
0.16260326 -0.00069065811 0.36600003
0.16356699 -0.00069065811 0.36600003
0.16453074 -0.00069065811 0.36600003
0.16549447 -0.00069065811 0.36600003
0.16691302 -0.00069254509 0.36700001
0.16787939 -0.00069254509 0.36700001
0.16884576 -0.00069254509 0.36700001
0.16981213 -0.00069254509 0.36700001
0.17124385 -0.00069443218 0.36800003
0.17221285 -0.00069443218 0.36800003
0.17318186 -0.00069443218 0.36800003
0.17415085 -0.00069443218 0.36800003
-0.1767597 0.0002253291 0.30200002
-0.17654714 0.00022607521 0.303
-0.17632934 0.00022682134 0.30400002
-0.17610623 0.00022756746 0.30500001
-0.17645265 0.0002290597 0.30700001
-0.17621641 0.00022980584 0.30800003
-0.17654438 0.00023129807 0.31
-0.17629498 0.0002320442 0.31100002
-0.17660451 0.00023353646 0.31300002
-0.17634192 0.00023428256 0.31400001
-0.17663305 0.00023577482 0.31600001
-0.1763573 0.00023652092 0.317
-0.17662998 0.00023801318 0.31900001
-0.17634107 0.00023875931 0.32000002
-0.17604688 0.00023950542 0.32100001
-0.17629324 0.00024099767 0.32300001
-0.17598589 0.00024174378 0.324
-0.17567328 0.00024248993 0.32500002
-0.17589331 0.00024398217 0.32700002
-0.17556752 0.00024472829 0.32800001
-0.17523649 0.00024547442 0.32900003
-0.17490017 0.00024622053 0.33000001
-0.17508595 0.00024771277 0.33200002
-0.17526121 0.00024920504 0.33400002
-0.17490384 0.00024995115 0.33500001
-0.17506066 0.00025144339 0.33700001
-0.17572379 0.00025368176 0.34
-0.1758569 0.000255174 0.34200001
-0.1761931 0.00025965075 0.34800002
-0.1762841 0.000261143 0.35000002
-0.17636456 0.00026263524 0.35200003
-0.17643447 0.00026412748 0.354
-0.17599812 0.00026487361 0.35500002
-0.17604962 0.00026636585 0.35700002
-0.17560007 0.00026711196 0.35800001
-0.17563315 0.00026860423 0.36000001
-0.17517044 0.00026935036 0.36100003
-0.17470247 0.00027009647 0.36200002
-0.17422922 0.00027084257 0.36300001
-0.17327338 0.00027084257 0.36300001
-0.17279227 0.00027158871 0.36400002
-0.17183378 0.00027158871 0.36400002
-0.17134476 0.00027233482 0.36500001
-0.17038363 0.00027233482 0.36500001
-0.16942254 0.00027233482 0.36500001
-0.16892298 0.00027308095 0.36600003
-0.16795923 0.00027308095 0.36600003
-0.1669955 0.00027308095 0.36600003
-0.16603175 0.00027308095 0.36600003
-0.16506802 0.00027308095 0.36600003
-0.16410427 0.00027308095 0.36600003
-0.16314054 0.00027308095 0.36600003
-0.1621768 0.00027308095 0.36600003
-0.16121306 0.00027308095 0.36600003
-0.16024932 0.00027308095 0.36600003
-0.15928558 0.00027308095 0.36600003
-0.15832184 0.00027308095 0.36600003
-0.15735811 0.00027308095 0.36600003
-0.15639436 0.00027308095 0.36600003
-0.1558553 0.00027382709 0.36700001
-0.15488893 0.00027382709 0.36700001
-0.15392256 0.00027382709 0.36700001
-0.15295619 0.00027382709 0.36700001
-0.15157567 0.00027308095 0.36600003
-0.15061194 0.00027308095 0.36600003
-0.14964819 0.00027308095 0.36600003
-0.14868446 0.00027308095 0.36600003
-0.14772072 0.00027308095 0.36600003
-0.14675698 0.00027308095 0.36600003
-0.14579324 0.00027308095 0.36600003
-0.1448295 0.00027308095 0.36600003
-0.14386576 0.00027308095 0.36600003
-0.14290202 0.00027308095 0.36600003
-0.14193828 0.00027308095 0.36600003
-0.14097455 0.00027308095 0.36600003
-0.1400108 0.00027308095 0.36600003
-0.13904707 0.00027308095 0.36600003
-0.13808332 0.00027308095 0.36600003
-0.13711959 0.00027308095 0.36600003
-0.13615586 0.00027308095 0.36600003
-0.13519211 0.00027308095 0.36600003
-0.13422838 0.00027308095 0.36600003
-0.13326463 0.00027308095 0.36600003
-0.1323009 0.00027308095 0.36600003
-0.13133715 0.00027308095 0.36600003
-0.13037342 0.00027308095 0.36600003
-0.12940967 0.00027308095 0.36600003
-0.12844594 0.00027308095 0.36600003
-0.12748219 0.00027308095 0.36600003
-0.12651846 0.00027308095 0.36600003
-0.12555471 0.00027308095 0.36600003
-0.12459099 0.00027308095 0.36600003
-0.12362724 0.00027308095 0.36600003
-0.12266351 0.00027308095 0.36600003
-0.12169976 0.00027308095 0.36600003
-0.12073603 0.00027308095 0.36600003
-0.11977229 0.00027308095 0.36600003
-0.11880855 0.00027308095 0.36600003
-0.11752282 0.00027233482 0.36500001
-0.11656171 0.00027233482 0.36500001
-0.11560061 0.00027233482 0.36500001
-0.11463951 0.00027233482 0.36500001
-0.1136784 0.00027233482 0.36500001
-0.11271729 0.00027233482 0.36500001
-0.11206236 0.00027308095 0.36600003
-0.11109863 0.00027308095 0.36600003
-0.11013488 0.00027308095 0.36600003
-0.10917115 0.00027308095 0.36600003
-0.10820742 0.00027308095 0.36600003
-0.10724367 0.00027308095 0.36600003
-0.10627994 0.00027308095 0.36600003
-0.10502844 0.00027233482 0.36500001
-0.10406734 0.00027233482 0.36500001
-0.10310624 0.00027233482 0.36500001
-0.10214513 0.00027233482 0.36500001
-0.10118403 0.00027233482 0.36500001
-0.10022291 0.00027233482 0.36500001
-0.099261813 0.00027233482 0.36500001
-0.09830071 0.00027233482 0.36500001
-0.097606286 0.00027308095 0.36600003
-0.096642546 0.00027308095 0.36600003
-0.095678806 0.00027308095 0.36600003
-0.094715066 0.00027308095 0.36600003
-0.093751326 0.00027308095 0.36600003
-0.092787586 0.00027308095 0.36600003
-0.091823854 0.00027308095 0.36600003
-0.090860106 0.00027308095 0.36600003
-0.089896373 0.00027308095 0.36600003
-0.088689648 0.00027233482 0.36500001
-0.087968893 0.00027308095 0.36600003
-0.087005153 0.00027308095 0.36600003
-0.086041413 0.00027308095 0.36600003
-0.084845223 0.00027233482 0.36500001
-0.08388412 0.00027233482 0.36500001
-0.08292301 0.00027233482 0.36500001
-0.0819619 0.00027233482 0.36500001
-0.081000797 0.00027233482 0.36500001
-0.080039687 0.00027233482 0.36500001
-0.079078585 0.00027233482 0.36500001
-0.078117482 0.00027233482 0.36500001
-0.077156372 0.00027233482 0.36500001
-0.075986519 0.00027158871 0.36400002
-0.07502804 0.00027158871 0.36400002
-0.073866077 0.00027084257 0.36300001
-0.072508536 0.00026935036 0.36100003
-0.071359739 0.00026860423 0.36000001
-0.070020624 0.00026711196 0.35800001
-0.068692036 0.00026561972 0.35600001
-0.067373984 0.00026412748 0.354
-0.066066474 0.00026263524 0.35200003
-0.064769484 0.000261143 0.35000002
-0.06366545 0.00026039686 0.34900001
-0.062386893 0.00025890462 0.347
-0.061296031 0.00025815848 0.34600002
-0.060210433 0.00025741238 0.34500003
-0.059130102 0.00025666624 0.34400001
-0.058055036 0.00025592014 0.34300002
-0.057151861 0.00025592014 0.34300002
-0.056248683 0.00025592014 0.34300002
-0.055345505 0.00025592014 0.34300002
-0.054442335 0.00025592014 0.34300002
-0.053383064 0.000255174 0.34200001
-0.052482519 0.000255174 0.34200001
-0.051581975 0.000255174 0.34200001
-0.050681431 0.000255174 0.34200001
-0.049780887 0.000255174 0.34200001
-0.049023278 0.00025592014 0.34300002
-0.0481201 0.00025592014 0.34300002
-0.047216922 0.00025592014 0.34300002
-0.046313744 0.00025592014 0.34300002
-0.04541057 0.00025592014 0.34300002
-0.044637147 0.00025666624 0.34400001
-0.043731343 0.00025666624 0.34400001
-0.042825531 0.00025666624 0.34400001
-0.041919723 0.00025666624 0.34400001
-0.041013911 0.00025666624 0.34400001
-0.040108103 0.00025666624 0.34400001
-0.039202295 0.00025666624 0.34400001
-0.038296483 0.00025666624 0.34400001
-0.037499372 0.00025741238 0.34500003
-0.03659093 0.00025741238 0.34500003
-0.03578591 0.00025815848 0.34600002
-0.034874838 0.00025815848 0.34600002
-0.03406192 0.00025890462 0.347
-0.033148214 0.00025890462 0.347
-0.032234505 0.00025890462 0.347
-0.031320795 0.00025890462 0.347
-0.028332582 0.00025666624 0.34400001
-0.027347045 0.00025592014 0.34300002
-0.026366772 0.000255174 0.34200001
-0.025391767 0.0002544279 0.34100002
-0.024422027 0.00025368176 0.34
-0.023457553 0.00025293563 0.33900002
-0.022498347 0.00025218952 0.33800003
-0.021480478 0.00025069728 0.33600003
-0.020595733 0.00025069728 0.33600003
-0.019652326 0.00024995115 0.33500001
-0.018714184 0.00024920504 0.33400002
-0.017834706 0.00024920504 0.33400002
-0.016904464 0.00024845891 0.333
-0.01602762 0.00024845891 0.333
-0.015105278 0.00024771277 0.33200002
-0.014231066 0.00024771277 0.33200002
-0.013316624 0.00024696667 0.33100003
-0.012445046 0.00024696667 0.33100003
-0.011538501 0.00024622053 0.33000001
-0.010604893 0.00024472829 0.32800001
-0.0097115161 0.00024398217 0.32700002
-0.0088234041 0.00024323603 0.32600001
-0.0079405587 0.00024248993 0.32500002
-0.0070629804 0.00024174378 0.324
-0.0061906683 0.00024099767 0.32300001
-0.0053236228 0.00024025155 0.32200003
-0.0044618431 0.00023950542 0.32100001
-0.0036053299 0.00023875931 0.32000002
-0.0027627165 0.00023875931 0.32000002
-0.0019141028 0.00023801318 0.31900001
-0.0010707554 0.00023726706 0.31800002
-0.00023267444 0.00023652092 0.317
0.00060203939 0.00023652092 0.317
0.0022571362 0.0002350287 0.31500003
0.0030865837 0.0002350287 0.31500003
0.0039035992 0.00023428256 0.31400001
0.0047153491 0.00023353646 0.31300002
0.00553953 0.00023353646 0.31300002
0.0063433792 0.00023279032 0.31200001
0.0071649277 0.00023279032 0.31200001
0.0079864757 0.00023279032 0.31200001
0.0088080233 0.00023279032 0.31200001
0.0096295718 0.00023279032 0.31200001
0.010451119 0.00023279032 0.31200001
0.011272667 0.00023279032 0.31200001
0.012055453 0.0002320442 0.31100002
0.012874368 0.0002320442 0.31100002
0.013693282 0.0002320442 0.31100002
0.014512198 0.0002320442 0.31100002
0.015331112 0.0002320442 0.31100002
0.016150028 0.0002320442 0.31100002
0.016968941 0.0002320442 0.31100002
0.017787857 0.0002320442 0.31100002
0.018606771 0.0002320442 0.31100002
0.019425686 0.0002320442 0.31100002
0.020309696 0.00023279032 0.31200001
0.021131244 0.00023279032 0.31200001
0.021952791 0.00023279032 0.31200001
0.022774341 0.00023279032 0.31200001
0.023595886 0.00023279032 0.31200001
0.024417436 0.00023279032 0.31200001
0.025238985 0.00023279032 0.31200001
0.026060531 0.00023279032 0.31200001
0.02688208 0.00023279032 0.31200001
0.027703628 0.00023279032 0.31200001
0.028525176 0.00023279032 0.31200001
0.029346725 0.00023279032 0.31200001
0.030168273 0.00023279032 0.31200001
0.03098982 0.00023279032 0.31200001
0.031811368 0.00023279032 0.31200001
0.032632917 0.00023279032 0.31200001
0.033347238 0.0002320442 0.31100002
0.034166154 0.0002320442 0.31100002
0.034985069 0.0002320442 0.31100002
0.048396952 0.00023353646 0.31300002
0.049221136 0.00023353646 0.31300002
0.050045315 0.00023353646 0.31300002
0.050869498 0.00023353646 0.31300002
0.051693682 0.00023353646 0.31300002
0.052517857 0.00023353646 0.31300002
0.053342041 0.00023353646 0.31300002
0.05416622 0.00023353646 0.31300002
0.054990403 0.00023353646 0.31300002
0.071048051 0.00027308095 0.36600003
0.072208546 0.00027382709 0.36700001
0.073174909 0.00027382709 0.36700001
0.073939264 0.00027308095 0.36600003
0.074903004 0.00027308095 0.36600003
0.075866744 0.00027308095 0.36600003
0.076830484 0.00027308095 0.36600003
0.077794224 0.00027308095 0.36600003
0.078757964 0.00027308095 0.36600003
0.079721704 0.00027308095 0.36600003
0.080685444 0.00027308095 0.36600003
0.081649184 0.00027308095 0.36600003
0.082612924 0.00027308095 0.36600003
0.083576657 0.00027308095 0.36600003
0.084540397 0.00027308095 0.36600003
0.085504137 0.00027308095 0.36600003
0.086467877 0.00027308095 0.36600003
0.087431617 0.00027308095 0.36600003
0.088395357 0.00027308095 0.36600003
0.08935909 0.00027308095 0.36600003
0.09032283 0.00027308095 0.36600003
0.09128657 0.00027308095 0.36600003
0.09225031 0.00027308095 0.36600003
0.093214042 0.00027308095 0.36600003
0.09417779 0.00027308095 0.36600003
0.095141523 0.00027308095 0.36600003
0.09610527 0.00027308095 0.36600003
0.097069003 0.00027308095 0.36600003
0.098032743 0.00027308095 0.36600003
0.098996483 0.00027308095 0.36600003
0.099960223 0.00027308095 0.36600003
0.10092396 0.00027308095 0.36600003
0.1018877 0.00027308095 0.36600003
0.10285144 0.00027308095 0.36600003
0.10381518 0.00027308095 0.36600003
0.10477892 0.00027308095 0.36600003
0.10574266 0.00027308095 0.36600003
0.1067064 0.00027308095 0.36600003
0.10767013 0.00027308095 0.36600003
0.10893068 0.00027382709 0.36700001
0.10989705 0.00027382709 0.36700001
0.11086343 0.00027382709 0.36700001
0.1118298 0.00027382709 0.36700001
0.11279618 0.00027382709 0.36700001
0.11376254 0.00027382709 0.36700001
0.11472891 0.00027382709 0.36700001
0.11569529 0.00027382709 0.36700001
0.11666166 0.00027382709 0.36700001
0.11762804 0.00027382709 0.36700001
0.11859441 0.00027382709 0.36700001
0.11956077 0.00027382709 0.36700001
0.12052716 0.00027382709 0.36700001
0.12149352 0.00027382709 0.36700001
0.1224599 0.00027382709 0.36700001
0.12342627 0.00027382709 0.36700001
0.12439264 0.00027382709 0.36700001
0.12535901 0.00027382709 0.36700001
0.12598117 0.00027308095 0.36600003
0.12694491 0.00027308095 0.36600003
0.12825812 0.00027382709 0.36700001
0.12922451 0.00027382709 0.36700001
0.13019088 0.00027382709 0.36700001
0.13115723 0.00027382709 0.36700001
0.13212362 0.00027382709 0.36700001
0.13308999 0.00027382709 0.36700001
0.13405636 0.00027382709 0.36700001
0.13502273 0.00027382709 0.36700001
0.1359891 0.00027382709 0.36700001
0.13695548 0.00027382709 0.36700001
0.13754605 0.00027308095 0.36600003
0.1385098 0.00027308095 0.36600003
0.13947353 0.00027308095 0.36600003
0.14043726 0.00027308095 0.36600003
0.14140101 0.00027308095 0.36600003
0.14236474 0.00027308095 0.36600003
0.14332849 0.00027308095 0.36600003
0.14429222 0.00027308095 0.36600003
0.14525597 0.00027308095 0.36600003
0.1466192 0.00027382709 0.36700001
0.14758557 0.00027382709 0.36700001
0.14855194 0.00027382709 0.36700001
0.14951831 0.00027382709 0.36700001
0.15007466 0.00027308095 0.36600003
0.15103839 0.00027308095 0.36600003
0.15200213 0.00027308095 0.36600003
0.15296587 0.00027308095 0.36600003
0.15392961 0.00027308095 0.36600003
0.15489335 0.00027308095 0.36600003
0.15585709 0.00027308095 0.36600003
0.15682082 0.00027308095 0.36600003
0.15778457 0.00027308095 0.36600003
0.1587483 0.00027308095 0.36600003
0.15971205 0.00027308095 0.36600003
0.16067578 0.00027308095 0.36600003
0.16163953 0.00027308095 0.36600003
0.16260326 0.00027308095 0.36600003
0.16356699 0.00027308095 0.36600003
0.16453074 0.00027308095 0.36600003
0.16549447 0.00027308095 0.36600003
0.16691302 0.00027382709 0.36700001
0.16787939 0.00027382709 0.36700001
0.16884576 0.00027382709 0.36700001
0.17027484 0.00027457322 0.36800003
0.17124385 0.00027457322 0.36800003
0.17221285 0.00027457322 0.36800003
0.17318186 0.00027457322 0.36800003
0.17415085 0.00027457322 0.36800003
-0.17654714 0.0010239248 0.303
-0.17632934 0.0010273041 0.30400002
-0.17610623 0.0010306833 0.30500001
-0.1758779 0.0010340627 0.30600002
-0.17621641 0.0010408213 0.30800003
-0.17597489 0.0010442005 0.30900002
-0.1757281 0.0010475798 0.31
-0.17604028 0.0010543383 0.31200001
-0.17634192 0.0010610969 0.31400001
-0.17607409 0.0010644763 0.31500003
-0.1763573 0.0010712348 0.317
-0.17607628 0.0010746141 0.31800002
-0.17579 0.0010779934 0.31900001
-0.17604688 0.0010847519 0.32100001
-0.17574745 0.0010881313 0.32200003
-0.17598589 0.0010948898 0.324
-0.17567328 0.0010982691 0.32500002
-0.17589331 0.0011050277 0.32700002
-0.17556752 0.001108407 0.32800001
-0.17523649 0.0011117863 0.32900003
-0.17543018 0.001118545 0.33100003
-0.17508595 0.0011219241 0.33200002
-0.17526121 0.0011286828 0.33400002
-0.17490384 0.0011320621 0.33500001
-0.17506066 0.0011388207 0.33700001
-0.17520696 0.0011455792 0.33900002
-0.17534271 0.0011523378 0.34100002
-0.17558265 0.001165855 0.34500003
-0.17568679 0.0011726135 0.347
-0.1762841 0.0011827514 0.35000002
-0.17636456 0.00118951 0.35200003
-0.17593609 0.0011928893 0.35300002
-0.17599812 0.0011996479 0.35500002
-0.17604962 0.0012064064 0.35700002
-0.17560007 0.0012097857 0.35800001
-0.17563315 0.0012165443 0.36000001
-0.17517044 0.0012199236 0.36100003
-0.17470247 0.0012233029 0.36200002
-0.17422922 0.0012266821 0.36300001
-0.17327338 0.0012266821 0.36300001
-0.17279227 0.0012300615 0.36400002
-0.17183378 0.0012300615 0.36400002
-0.17134476 0.0012334407 0.36500001
-0.17038363 0.0012334407 0.36500001
-0.16942254 0.0012334407 0.36500001
-0.16892298 0.00123682 0.36600003
-0.16795923 0.00123682 0.36600003
-0.1669955 0.00123682 0.36600003
-0.16603175 0.00123682 0.36600003
-0.16506802 0.00123682 0.36600003
-0.16410427 0.00123682 0.36600003
-0.16314054 0.00123682 0.36600003
-0.1621768 0.00123682 0.36600003
-0.16121306 0.00123682 0.36600003
-0.16024932 0.00123682 0.36600003
-0.15928558 0.00123682 0.36600003
-0.15832184 0.00123682 0.36600003
-0.15735811 0.00123682 0.36600003
-0.15639436 0.00123682 0.36600003
-0.1558553 0.0012401993 0.36700001
-0.15488893 0.0012401993 0.36700001
-0.15392256 0.0012401993 0.36700001
-0.15295619 0.0012401993 0.36700001
-0.15157567 0.00123682 0.36600003
-0.15061194 0.00123682 0.36600003
-0.14964819 0.00123682 0.36600003
-0.14868446 0.00123682 0.36600003
-0.14772072 0.00123682 0.36600003
-0.14675698 0.00123682 0.36600003
-0.14579324 0.00123682 0.36600003
-0.14443378 0.0012334407 0.36500001
-0.14347269 0.0012334407 0.36500001
-0.14290202 0.00123682 0.36600003
-0.14193828 0.00123682 0.36600003
-0.14097455 0.00123682 0.36600003
-0.1400108 0.00123682 0.36600003
-0.13904707 0.00123682 0.36600003
-0.13808332 0.00123682 0.36600003
-0.13711959 0.00123682 0.36600003
-0.13615586 0.00123682 0.36600003
-0.13519211 0.00123682 0.36600003
-0.13422838 0.00123682 0.36600003
-0.13326463 0.00123682 0.36600003
-0.1323009 0.00123682 0.36600003
-0.13133715 0.00123682 0.36600003
-0.13037342 0.00123682 0.36600003
-0.12940967 0.00123682 0.36600003
-0.12844594 0.00123682 0.36600003
-0.12748219 0.00123682 0.36600003
-0.12651846 0.00123682 0.36600003
-0.12555471 0.00123682 0.36600003
-0.12459099 0.00123682 0.36600003
-0.12362724 0.00123682 0.36600003
-0.12266351 0.00123682 0.36600003
-0.12169976 0.00123682 0.36600003
-0.12073603 0.00123682 0.36600003
-0.11977229 0.00123682 0.36600003
-0.11880855 0.00123682 0.36600003
-0.11784481 0.00123682 0.36600003
-0.11656171 0.0012334407 0.36500001
-0.11560061 0.0012334407 0.36500001
-0.11463951 0.0012334407 0.36500001
-0.1136784 0.0012334407 0.36500001
-0.11271729 0.0012334407 0.36500001
-0.11175618 0.0012334407 0.36500001
-0.11109863 0.00123682 0.36600003
-0.11013488 0.00123682 0.36600003
-0.10917115 0.00123682 0.36600003
-0.10820742 0.00123682 0.36600003
-0.10724367 0.00123682 0.36600003
-0.10627994 0.00123682 0.36600003
-0.10531619 0.00123682 0.36600003
-0.10406734 0.0012334407 0.36500001
-0.10310624 0.0012334407 0.36500001
-0.10214513 0.0012334407 0.36500001
-0.10118403 0.0012334407 0.36500001
-0.10022291 0.0012334407 0.36500001
-0.099261813 0.0012334407 0.36500001
-0.09830071 0.0012334407 0.36500001
-0.097606286 0.00123682 0.36600003
-0.096642546 0.00123682 0.36600003
-0.09541738 0.0012334407 0.36500001
-0.094715066 0.00123682 0.36600003
-0.093751326 0.00123682 0.36600003
-0.092787586 0.00123682 0.36600003
-0.091823854 0.00123682 0.36600003
-0.090860106 0.00123682 0.36600003
-0.089896373 0.00123682 0.36600003
-0.088932633 0.00123682 0.36600003
-0.087728538 0.0012334407 0.36500001
-0.087005153 0.00123682 0.36600003
-0.085806325 0.0012334407 0.36500001
-0.084845223 0.0012334407 0.36500001
-0.08388412 0.0012334407 0.36500001
-0.08292301 0.0012334407 0.36500001
-0.0819619 0.0012334407 0.36500001
-0.081000797 0.0012334407 0.36500001
-0.080039687 0.0012334407 0.36500001
-0.079078585 0.0012334407 0.36500001
-0.078117482 0.0012334407 0.36500001
-0.077156372 0.0012334407 0.36500001
-0.075986519 0.0012300615 0.36400002
-0.074821919 0.0012266821 0.36300001
-0.073662594 0.0012233029 0.36200002
-0.072307684 0.0012165443 0.36000001
-0.070963293 0.0012097857 0.35800001
-0.069825038 0.0012064064 0.35700002
-0.068499081 0.0011996479 0.35500002
-0.067183666 0.0011928893 0.35300002
-0.065878779 0.0011861307 0.35100001
-0.064584427 0.0011793721 0.34900001
-0.06348303 0.0011759928 0.34800002
-0.062207107 0.0011692343 0.34600002
-0.061118878 0.001165855 0.34500003
-0.060035907 0.0011624757 0.34400001
-0.058958214 0.0011590964 0.34300002
-0.058055036 0.0011590964 0.34300002
-0.057151861 0.0011590964 0.34300002
-0.056084689 0.0011557171 0.34200001
-0.055184145 0.0011557171 0.34200001
-0.054283608 0.0011557171 0.34200001
-0.053383064 0.0011557171 0.34200001
-0.052482519 0.0011557171 0.34200001
-0.051581975 0.0011557171 0.34200001
-0.050681431 0.0011557171 0.34200001
-0.049780887 0.0011557171 0.34200001
-0.04888035 0.0011557171 0.34200001
-0.047979806 0.0011557171 0.34200001
-0.047216922 0.0011590964 0.34300002
-0.046313744 0.0011590964 0.34300002
-0.04541057 0.0011590964 0.34300002
-0.044507392 0.0011590964 0.34300002
-0.043604217 0.0011590964 0.34300002
-0.042701043 0.0011590964 0.34300002
-0.041797865 0.0011590964 0.34300002
-0.040894687 0.0011590964 0.34300002
-0.039991513 0.0011590964 0.34300002
-0.039088335 0.0011590964 0.34300002
-0.038185157 0.0011590964 0.34300002
-0.037390675 0.0011624757 0.34400001
-0.036484867 0.0011624757 0.34400001
-0.035579056 0.0011624757 0.34400001
-0.034673247 0.0011624757 0.34400001
-0.033767439 0.0011624757 0.34400001
-0.032957159 0.001165855 0.34500003
-0.03195582 0.0011624757 0.34400001
-0.028167857 0.0011557171 0.34200001
-0.027187588 0.0011523378 0.34100002
-0.026212581 0.0011489585 0.34
-0.025317302 0.0011489585 0.34
-0.024350198 0.0011455792 0.33900002
-0.023388358 0.0011422 0.33800003
-0.022498347 0.0011422 0.33800003
-0.021480478 0.0011354414 0.33600003
-0.020595733 0.0011354414 0.33600003
-0.019652326 0.0011320621 0.33500001
-0.018714184 0.0011286828 0.33400002
-0.017834706 0.0011286828 0.33400002
-0.016904464 0.0011253034 0.333
-0.01602762 0.0011253034 0.333
-0.015105278 0.0011219241 0.33200002
-0.014231066 0.0011219241 0.33200002
-0.013316624 0.001118545 0.33100003
-0.012407447 0.0011151655 0.33000001
-0.011503536 0.0011117863 0.32900003
-0.010604893 0.001108407 0.32800001
-0.0097115161 0.0011050277 0.32700002
-0.0088234041 0.0011016484 0.32600001
-0.0079405587 0.0010982691 0.32500002
-0.0070629804 0.0010948898 0.324
-0.0061906683 0.0010915105 0.32300001
-0.0053236228 0.0010881313 0.32200003
-0.0044618431 0.0010847519 0.32100001
-0.0036053299 0.0010813727 0.32000002
-0.0027627165 0.0010813727 0.32000002
-0.0019141028 0.0010779934 0.31900001
-0.0010707554 0.0010746141 0.31800002
-0.00023267444 0.0010712348 0.317
0.00060014025 0.0010678555 0.31600001
0.0014322209 0.0010678555 0.31600001
0.0022571362 0.0010644763 0.31500003
0.0030767848 0.0010610969 0.31400001
0.0039035992 0.0010610969 0.31400001
0.0047153491 0.0010577177 0.31300002
0.00553953 0.0010577177 0.31300002
0.0063637109 0.0010577177 0.31300002
0.0071649277 0.0010543383 0.31200001
0.0079864757 0.0010543383 0.31200001
0.0088080233 0.0010543383 0.31200001
0.0096295718 0.0010543383 0.31200001
0.010451119 0.0010543383 0.31200001
0.011272667 0.0010543383 0.31200001
0.012094216 0.0010543383 0.31200001
0.012874368 0.0010509591 0.31100002
0.013693282 0.0010509591 0.31100002
0.014512198 0.0010509591 0.31100002
0.015331112 0.0010509591 0.31100002
0.016150028 0.0010509591 0.31100002
0.016968941 0.0010509591 0.31100002
0.017787857 0.0010509591 0.31100002
0.018606771 0.0010509591 0.31100002
0.019488147 0.0010543383 0.31200001
0.020244602 0.0010509591 0.31100002
0.021131244 0.0010543383 0.31200001
0.021952791 0.0010543383 0.31200001
0.022774341 0.0010543383 0.31200001
0.023595886 0.0010543383 0.31200001
0.024417436 0.0010543383 0.31200001
0.025238985 0.0010543383 0.31200001
0.026060531 0.0010543383 0.31200001
0.02688208 0.0010543383 0.31200001
0.027703628 0.0010543383 0.31200001
0.028525176 0.0010543383 0.31200001
0.029346725 0.0010543383 0.31200001
0.030168273 0.0010543383 0.31200001
0.03098982 0.0010543383 0.31200001
0.031811368 0.0010543383 0.31200001
0.032632917 0.0010543383 0.31200001
0.033347238 0.0010509591 0.31100002
0.034166154 0.0010509591 0.31100002
0.034985069 0.0010509591 0.31100002
0.035803985 0.0010509591 0.31100002
0.048396952 0.0010577177 0.31300002
0.049221136 0.0010577177 0.31300002
0.050045315 0.0010577177 0.31300002
0.050869498 0.0010577177 0.31300002
0.051693682 0.0010577177 0.31300002
0.052517857 0.0010577177 0.31300002
0.053342041 0.0010577177 0.31300002
0.05416622 0.0010577177 0.31300002
0.054990403 0.0010577177 0.31300002
0.055636261 0.0010543383 0.31200001
0.05645781 0.0010543383 0.31200001
0.071242169 0.0012401993 0.36700001
0.072208546 0.0012401993 0.36700001
0.073174909 0.0012401993 0.36700001
0.073939264 0.00123682 0.36600003
0.074903004 0.00123682 0.36600003
0.075866744 0.00123682 0.36600003
0.076830484 0.00123682 0.36600003
0.077794224 0.00123682 0.36600003
0.078757964 0.00123682 0.36600003
0.079721704 0.00123682 0.36600003
0.080905892 0.0012401993 0.36700001
0.081872262 0.0012401993 0.36700001
0.08283864 0.0012401993 0.36700001
0.083576657 0.00123682 0.36600003
0.084540397 0.00123682 0.36600003
0.085504137 0.00123682 0.36600003
0.086467877 0.00123682 0.36600003
0.087431617 0.00123682 0.36600003
0.088395357 0.00123682 0.36600003
0.08935909 0.00123682 0.36600003
0.09032283 0.00123682 0.36600003
0.09128657 0.00123682 0.36600003
0.09225031 0.00123682 0.36600003
0.093214042 0.00123682 0.36600003
0.09417779 0.00123682 0.36600003
0.095141523 0.00123682 0.36600003
0.09610527 0.00123682 0.36600003
0.097069003 0.00123682 0.36600003
0.098032743 0.00123682 0.36600003
0.098996483 0.00123682 0.36600003
0.099960223 0.00123682 0.36600003
0.10092396 0.00123682 0.36600003
0.1018877 0.00123682 0.36600003
0.10285144 0.00123682 0.36600003
0.10381518 0.00123682 0.36600003
0.10477892 0.00123682 0.36600003
0.10574266 0.00123682 0.36600003
0.1067064 0.00123682 0.36600003
0.10767013 0.00123682 0.36600003
0.10893068 0.0012401993 0.36700001
0.10989705 0.0012401993 0.36700001
0.11086343 0.0012401993 0.36700001
0.1118298 0.0012401993 0.36700001
0.11279618 0.0012401993 0.36700001
0.11376254 0.0012401993 0.36700001
0.11472891 0.0012401993 0.36700001
0.11569529 0.0012401993 0.36700001
0.11666166 0.0012401993 0.36700001
0.11762804 0.0012401993 0.36700001
0.11859441 0.0012401993 0.36700001
0.11956077 0.0012401993 0.36700001
0.12052716 0.0012401993 0.36700001
0.12149352 0.0012401993 0.36700001
0.1224599 0.0012401993 0.36700001
0.12342627 0.0012401993 0.36700001
0.12439264 0.0012401993 0.36700001
0.12535901 0.0012401993 0.36700001
0.12598117 0.00123682 0.36600003
0.12694491 0.00123682 0.36600003
0.12790865 0.00123682 0.36600003
0.12887239 0.00123682 0.36600003
0.13019088 0.0012401993 0.36700001
0.13115723 0.0012401993 0.36700001
0.13212362 0.0012401993 0.36700001
0.13308999 0.0012401993 0.36700001
0.13405636 0.0012401993 0.36700001
0.13502273 0.0012401993 0.36700001
0.1359891 0.0012401993 0.36700001
0.13658231 0.00123682 0.36600003
0.13754605 0.00123682 0.36600003
0.1385098 0.00123682 0.36600003
0.13947353 0.00123682 0.36600003
0.14043726 0.00123682 0.36600003
0.14140101 0.00123682 0.36600003
0.14236474 0.00123682 0.36600003
0.14332849 0.00123682 0.36600003
0.14429222 0.00123682 0.36600003
0.14565283 0.0012401993 0.36700001
0.1466192 0.0012401993 0.36700001
0.14758557 0.0012401993 0.36700001
0.14855194 0.0012401993 0.36700001
0.14951831 0.0012401993 0.36700001
0.1504847 0.0012401993 0.36700001
0.15103839 0.00123682 0.36600003
0.15200213 0.00123682 0.36600003
0.15296587 0.00123682 0.36600003
0.15392961 0.00123682 0.36600003
0.15489335 0.00123682 0.36600003
0.15585709 0.00123682 0.36600003
0.15682082 0.00123682 0.36600003
0.15778457 0.00123682 0.36600003
0.1587483 0.00123682 0.36600003
0.15971205 0.00123682 0.36600003
0.16067578 0.00123682 0.36600003
0.16163953 0.00123682 0.36600003
0.16260326 0.00123682 0.36600003
0.16356699 0.00123682 0.36600003
0.16453074 0.00123682 0.36600003
0.16549447 0.00123682 0.36600003
0.16691302 0.0012401993 0.36700001
0.16787939 0.0012401993 0.36700001
0.16884576 0.0012401993 0.36700001
0.17027484 0.0012435786 0.36800003
0.17124385 0.0012435786 0.36800003
0.17221285 0.0012435786 0.36800003
0.17318186 0.0012435786 0.36800003
0.17415085 0.0012435786 0.36800003
-0.1767597 0.0018157618 0.30200002
-0.17654714 0.0018217742 0.303
-0.17632934 0.0018277868 0.30400002
-0.17610623 0.0018337992 0.30500001
-0.1758779 0.0018398117 0.30600002
-0.17564428 0.0018458241 0.30700001
-0.17597489 0.001857849 0.30900002
-0.1757281 0.0018638613 0.31
-0.17604028 0.0018758863 0.31200001
-0.17578034 0.0018818988 0.31300002
-0.17607409 0.0018939239 0.31500003
-0.17580098 0.0018999362 0.31600001
-0.17607628 0.0019119611 0.31800002
-0.17579 0.0019179735 0.31900001
-0.17604688 0.0019299984 0.32100001
-0.17574745 0.001936011 0.32200003
-0.17598589 0.0019480358 0.324
-0.17567328 0.0019540484 0.32500002
-0.17589331 0.0019660732 0.32700002
-0.17556752 0.0019720856 0.32800001
-0.17523649 0.0019780982 0.32900003
-0.17543018 0.0019901232 0.33100003
-0.17508595 0.0019961356 0.33200002
-0.17526121 0.0020081603 0.33400002
-0.17490384 0.0020141727 0.33500001
-0.17506066 0.0020261977 0.33700001
-0.17520696 0.0020382227 0.33900002
-0.17534271 0.0020502477 0.34100002
-0.17546794 0.0020622725 0.34300002
-0.17558265 0.0020742975 0.34500003
-0.17568679 0.0020863223 0.347
-0.17578043 0.0020983473 0.34900001
-0.17636456 0.0021163847 0.35200003
-0.17593609 0.0021223971 0.35300002
-0.17599812 0.0021344221 0.35500002
-0.17555647 0.0021404345 0.35600001
-0.17560007 0.0021524592 0.35800001
-0.17514528 0.0021584718 0.35900003
-0.17517044 0.0021704969 0.36100003
-0.17470247 0.0021765092 0.36200002
-0.17422922 0.0021825216 0.36300001
-0.17327338 0.0021825216 0.36300001
-0.17279227 0.0021885342 0.36400002
-0.17230585 0.0021945464 0.36500001
-0.17134476 0.0021945464 0.36500001
-0.17038363 0.0021945464 0.36500001
-0.16988671 0.002200559 0.36600003
-0.16892298 0.002200559 0.36600003
-0.16795923 0.002200559 0.36600003
-0.1669955 0.002200559 0.36600003
-0.16603175 0.002200559 0.36600003
-0.16506802 0.002200559 0.36600003
-0.16410427 0.002200559 0.36600003
-0.16314054 0.002200559 0.36600003
-0.1621768 0.002200559 0.36600003
-0.16121306 0.002200559 0.36600003
-0.16024932 0.002200559 0.36600003
-0.15928558 0.002200559 0.36600003
-0.15832184 0.002200559 0.36600003
-0.15735811 0.002200559 0.36600003
-0.15639436 0.002200559 0.36600003
-0.1558553 0.0022065714 0.36700001
-0.15488893 0.0022065714 0.36700001
-0.15392256 0.0022065714 0.36700001
-0.15295619 0.0022065714 0.36700001
-0.15157567 0.002200559 0.36600003
-0.15061194 0.002200559 0.36600003
-0.14964819 0.002200559 0.36600003
-0.14868446 0.002200559 0.36600003
-0.14772072 0.002200559 0.36600003
-0.14675698 0.002200559 0.36600003
-0.14579324 0.002200559 0.36600003
-0.14443378 0.0021945464 0.36500001
-0.14347269 0.0021945464 0.36500001
-0.14251156 0.0021945464 0.36500001
-0.14193828 0.002200559 0.36600003
-0.14097455 0.002200559 0.36600003
-0.1400108 0.002200559 0.36600003
-0.13904707 0.002200559 0.36600003
-0.13808332 0.002200559 0.36600003
-0.13711959 0.002200559 0.36600003
-0.13615586 0.002200559 0.36600003
-0.13519211 0.002200559 0.36600003
-0.13422838 0.002200559 0.36600003
-0.13326463 0.002200559 0.36600003
-0.1323009 0.002200559 0.36600003
-0.13133715 0.002200559 0.36600003
-0.13037342 0.002200559 0.36600003
-0.12940967 0.002200559 0.36600003
-0.12844594 0.002200559 0.36600003
-0.12748219 0.002200559 0.36600003
-0.12651846 0.002200559 0.36600003
-0.12555471 0.002200559 0.36600003
-0.12459099 0.002200559 0.36600003
-0.12362724 0.002200559 0.36600003
-0.12266351 0.002200559 0.36600003
-0.12169976 0.002200559 0.36600003
-0.12073603 0.002200559 0.36600003
-0.11977229 0.002200559 0.36600003
-0.11880855 0.002200559 0.36600003
-0.11752282 0.0021945464 0.36500001
-0.11656171 0.0021945464 0.36500001
-0.11591733 0.002200559 0.36600003
-0.11495359 0.002200559 0.36600003
-0.11398984 0.002200559 0.36600003
-0.11302611 0.002200559 0.36600003
-0.11206236 0.002200559 0.36600003
-0.11079508 0.0021945464 0.36500001
-0.11013488 0.002200559 0.36600003
-0.10917115 0.002200559 0.36600003
-0.10820742 0.002200559 0.36600003
-0.10724367 0.002200559 0.36600003
-0.10627994 0.002200559 0.36600003
-0.10531619 0.002200559 0.36600003
-0.10435246 0.002200559 0.36600003
-0.10338873 0.002200559 0.36600003
-0.10214513 0.0021945464 0.36500001
-0.10118403 0.0021945464 0.36500001
-0.10022291 0.0021945464 0.36500001
-0.099261813 0.0021945464 0.36500001
-0.09830071 0.0021945464 0.36500001
-0.097606286 0.002200559 0.36600003
-0.096642546 0.002200559 0.36600003
-0.095678806 0.002200559 0.36600003
-0.094715066 0.002200559 0.36600003
-0.093751326 0.002200559 0.36600003
-0.092787586 0.002200559 0.36600003
-0.091823854 0.002200559 0.36600003
-0.090860106 0.002200559 0.36600003
-0.089896373 0.002200559 0.36600003
-0.088932633 0.002200559 0.36600003
-0.087728538 0.0021945464 0.36500001
-0.087005153 0.002200559 0.36600003
-0.085806325 0.0021945464 0.36500001
-0.084845223 0.0021945464 0.36500001
-0.08388412 0.0021945464 0.36500001
-0.08292301 0.0021945464 0.36500001
-0.0819619 0.0021945464 0.36500001
-0.081000797 0.0021945464 0.36500001
-0.080039687 0.0021945464 0.36500001
-0.079078585 0.0021945464 0.36500001
-0.078117482 0.0021945464 0.36500001
-0.077156372 0.0021945464 0.36500001
-0.075986519 0.0021885342 0.36400002
-0.074821919 0.0021825216 0.36300001
-0.073459104 0.0021704969 0.36100003
-0.072307684 0.0021644842 0.36000001
-0.070963293 0.0021524592 0.35800001
-0.069629446 0.0021404345 0.35600001
-0.068306126 0.0021284095 0.354
-0.066993341 0.0021163847 0.35200003
-0.065691091 0.0021043597 0.35000002
-0.064399369 0.0020923349 0.34800002
-0.063300602 0.0020863223 0.347
-0.062207107 0.0020803099 0.34600002
-0.061118878 0.0020742975 0.34500003
-0.060035907 0.0020682849 0.34400001
-0.058958214 0.0020622725 0.34300002
-0.057885777 0.0020562599 0.34200001
-0.056985233 0.0020562599 0.34200001
-0.056084689 0.0020562599 0.34200001
-0.055184145 0.0020562599 0.34200001
-0.054283608 0.0020562599 0.34200001
-0.053383064 0.0020562599 0.34200001
-0.052482519 0.0020562599 0.34200001
-0.051581975 0.0020562599 0.34200001
-0.050681431 0.0020562599 0.34200001
-0.049780887 0.0020562599 0.34200001
-0.04888035 0.0020562599 0.34200001
-0.047979806 0.0020562599 0.34200001
-0.047079261 0.0020562599 0.34200001
-0.046178717 0.0020562599 0.34200001
-0.04541057 0.0020622725 0.34300002
-0.044507392 0.0020622725 0.34300002
-0.043604217 0.0020622725 0.34300002
-0.042701043 0.0020622725 0.34300002
-0.041797865 0.0020622725 0.34300002
-0.040894687 0.0020622725 0.34300002
-0.039991513 0.0020622725 0.34300002
-0.039088335 0.0020622725 0.34300002
-0.038185157 0.0020622725 0.34300002
-0.037281983 0.0020622725 0.34300002
-0.036378808 0.0020622725 0.34300002
-0.03547563 0.0020622725 0.34300002
-0.034572456 0.0020622725 0.34300002
-0.033669278 0.0020622725 0.34300002
-0.032766104 0.0020622725 0.34300002
-0.031862926 0.0020622725 0.34300002
-0.03095975 0.0020622725 0.34300002
-0.029968945 0.0020562599 0.34200001
-0.029068401 0.0020562599 0.34200001
-0.028085496 0.0020502477 0.34100002
-0.027107857 0.0020442351 0.34
-0.026212581 0.0020442351 0.34
-0.025242841 0.0020382227 0.33900002
-0.024350198 0.0020382227 0.33900002
-0.023388358 0.0020322104 0.33800003
-0.022431783 0.0020261977 0.33700001
-0.021544408 0.0020261977 0.33700001
-0.020595733 0.0020201853 0.33600003
-0.019652326 0.0020141727 0.33500001
-0.018714184 0.0020081603 0.33400002
-0.017834706 0.0020081603 0.33400002
-0.016904464 0.002002148 0.333
-0.01602762 0.002002148 0.333
-0.015105278 0.0019961356 0.33200002
-0.014188202 0.0019901232 0.33100003
-0.013316624 0.0019901232 0.33100003
-0.012407447 0.0019841106 0.33000001
-0.011503536 0.0019780982 0.32900003
-0.010604893 0.0019720856 0.32800001
-0.0097115161 0.0019660732 0.32700002
-0.0088234041 0.0019600608 0.32600001
-0.0079405587 0.0019540484 0.32500002
-0.0070629804 0.0019480358 0.324
-0.0061906683 0.0019420234 0.32300001
-0.0053236228 0.001936011 0.32200003
-0.0044618431 0.0019299984 0.32100001
-0.0036053299 0.001923986 0.32000002
-0.0027540829 0.0019179735 0.31900001
-0.0019141028 0.0019179735 0.31900001
-0.0010707554 0.0019119611 0.31800002
-0.00023267444 0.0019059486 0.317
0.00060014025 0.0018999362 0.31600001
0.0014322209 0.0018999362 0.31600001
0.0022571362 0.0018939239 0.31500003
0.0030865837 0.0018939239 0.31500003
0.0039035992 0.0018879112 0.31400001
0.0047153491 0.0018818988 0.31300002
0.00553953 0.0018818988 0.31300002
0.0063433792 0.0018758863 0.31200001
0.0071649277 0.0018758863 0.31200001
0.0079864757 0.0018758863 0.31200001
0.0088080233 0.0018758863 0.31200001
0.0096295718 0.0018758863 0.31200001
0.010451119 0.0018758863 0.31200001
0.011272667 0.0018758863 0.31200001
0.012094216 0.0018758863 0.31200001
0.012915764 0.0018758863 0.31200001
0.013737312 0.0018758863 0.31200001
0.01455886 0.0018758863 0.31200001
0.015331112 0.001869874 0.31100002
0.016150028 0.001869874 0.31100002
0.016968941 0.001869874 0.31100002
0.017787857 0.001869874 0.31100002
0.018666599 0.0018758863 0.31200001
0.019488147 0.0018758863 0.31200001
0.020309696 0.0018758863 0.31200001
0.021131244 0.0018758863 0.31200001
0.021952791 0.0018758863 0.31200001
0.022774341 0.0018758863 0.31200001
0.023595886 0.0018758863 0.31200001
0.024417436 0.0018758863 0.31200001
0.025238985 0.0018758863 0.31200001
0.026060531 0.0018758863 0.31200001
0.02688208 0.0018758863 0.31200001
0.027703628 0.0018758863 0.31200001
0.028525176 0.0018758863 0.31200001
0.029346725 0.0018758863 0.31200001
0.030168273 0.0018758863 0.31200001
0.03098982 0.0018758863 0.31200001
0.031811368 0.0018758863 0.31200001
0.032632917 0.0018758863 0.31200001
0.033347238 0.001869874 0.31100002
0.034166154 0.001869874 0.31100002
0.034985069 0.001869874 0.31100002
0.035803985 0.001869874 0.31100002
0.048396952 0.0018818988 0.31300002
0.049221136 0.0018818988 0.31300002
0.050045315 0.0018818988 0.31300002
0.050869498 0.0018818988 0.31300002
0.051693682 0.0018818988 0.31300002
0.052517857 0.0018818988 0.31300002
0.053342041 0.0018818988 0.31300002
0.05416622 0.0018818988 0.31300002
0.054990403 0.0018818988 0.31300002
0.055814587 0.0018818988 0.31300002
0.05645781 0.0018758863 0.31200001
0.071242169 0.0022065714 0.36700001
0.072208546 0.0022065714 0.36700001
0.073174909 0.0022065714 0.36700001
0.073939264 0.002200559 0.36600003
0.074903004 0.002200559 0.36600003
0.075866744 0.002200559 0.36600003
0.076830484 0.002200559 0.36600003
0.077794224 0.002200559 0.36600003
0.078757964 0.002200559 0.36600003
0.079721704 0.002200559 0.36600003
0.080905892 0.0022065714 0.36700001
0.081872262 0.0022065714 0.36700001
0.08283864 0.0022065714 0.36700001
0.083805002 0.0022065714 0.36700001
0.08477138 0.0022065714 0.36700001
0.085504137 0.002200559 0.36600003
0.086467877 0.002200559 0.36600003
0.087431617 0.002200559 0.36600003
0.088395357 0.002200559 0.36600003
0.08935909 0.002200559 0.36600003
0.09032283 0.002200559 0.36600003
0.09128657 0.002200559 0.36600003
0.09225031 0.002200559 0.36600003
0.093214042 0.002200559 0.36600003
0.09417779 0.002200559 0.36600003
0.095141523 0.002200559 0.36600003
0.09610527 0.002200559 0.36600003
0.097069003 0.002200559 0.36600003
0.098032743 0.002200559 0.36600003
0.098996483 0.002200559 0.36600003
0.099960223 0.002200559 0.36600003
0.10092396 0.002200559 0.36600003
0.1018877 0.002200559 0.36600003
0.10285144 0.002200559 0.36600003
0.10381518 0.002200559 0.36600003
0.10477892 0.002200559 0.36600003
0.10574266 0.002200559 0.36600003
0.1067064 0.002200559 0.36600003
0.10796431 0.0022065714 0.36700001
0.10893068 0.0022065714 0.36700001
0.10989705 0.0022065714 0.36700001
0.11086343 0.0022065714 0.36700001
0.1118298 0.0022065714 0.36700001
0.11279618 0.0022065714 0.36700001
0.11376254 0.0022065714 0.36700001
0.11472891 0.0022065714 0.36700001
0.11538005 0.002200559 0.36600003
0.11634378 0.002200559 0.36600003
0.11762804 0.0022065714 0.36700001
0.11859441 0.0022065714 0.36700001
0.11956077 0.0022065714 0.36700001
0.12052716 0.0022065714 0.36700001
0.12149352 0.0022065714 0.36700001
0.1224599 0.0022065714 0.36700001
0.12342627 0.0022065714 0.36700001
0.12439264 0.0022065714 0.36700001
0.12535901 0.0022065714 0.36700001
0.12598117 0.002200559 0.36600003
0.12694491 0.002200559 0.36600003
0.12790865 0.002200559 0.36600003
0.12887239 0.002200559 0.36600003
0.12983613 0.002200559 0.36600003
0.13115723 0.0022065714 0.36700001
0.13212362 0.0022065714 0.36700001
0.13308999 0.0022065714 0.36700001
0.13405636 0.0022065714 0.36700001
0.13502273 0.0022065714 0.36700001
0.1359891 0.0022065714 0.36700001
0.13658231 0.002200559 0.36600003
0.13792185 0.0022065714 0.36700001
0.1385098 0.002200559 0.36600003
0.13947353 0.002200559 0.36600003
0.14043726 0.002200559 0.36600003
0.14140101 0.002200559 0.36600003
0.14236474 0.002200559 0.36600003
0.14332849 0.002200559 0.36600003
0.14429222 0.002200559 0.36600003
0.14565283 0.0022065714 0.36700001
0.1466192 0.0022065714 0.36700001
0.14758557 0.0022065714 0.36700001
0.14855194 0.0022065714 0.36700001
0.14951831 0.0022065714 0.36700001
0.1504847 0.0022065714 0.36700001
0.15103839 0.002200559 0.36600003
0.15200213 0.002200559 0.36600003
0.15296587 0.002200559 0.36600003
0.15392961 0.002200559 0.36600003
0.15489335 0.002200559 0.36600003
0.15585709 0.002200559 0.36600003
0.15682082 0.002200559 0.36600003
0.15778457 0.002200559 0.36600003
0.1587483 0.002200559 0.36600003
0.15971205 0.002200559 0.36600003
0.16067578 0.002200559 0.36600003
0.16163953 0.002200559 0.36600003
