# .PCD v0.7 - Point Cloud Data file format
VERSION 0.7
FIELDS x y z
SIZE 4 4 4
TYPE F F F
COUNT 1 1 1
WIDTH 1331
HEIGHT 1
VIEWPOINT 0 0 0 1 0 0 0
POINTS 1331
DATA ascii
0.14332849 -0.072971091 0.36600003
0.14429222 -0.072971091 0.36600003
0.14525597 -0.072971091 0.36600003
0.1462197 -0.072971091 0.36600003
0.14718343 -0.072971091 0.36600003
0.14814718 -0.072971091 0.36600003
0.14911091 -0.072971091 0.36600003
0.15007466 -0.072971091 0.36600003
0.15103839 -0.072971091 0.36600003
0.15200213 -0.072971091 0.36600003
0.15296587 -0.072971091 0.36600003
0.15392961 -0.072971091 0.36600003
0.15489335 -0.072971091 0.36600003
0.15585709 -0.072971091 0.36600003
0.15682082 -0.072971091 0.36600003
0.15778457 -0.072971091 0.36600003
0.1587483 -0.072971091 0.36600003
0.15971205 -0.072971091 0.36600003
0.16067578 -0.072971091 0.36600003
0.16163953 -0.072971091 0.36600003
0.16260326 -0.072971091 0.36600003
0.16356699 -0.072971091 0.36600003
0.16453074 -0.072971091 0.36600003
0.16594665 -0.073170461 0.36700001
0.16691302 -0.073170461 0.36700001
0.16787939 -0.073170461 0.36700001
0.16838568 -0.072971091 0.36600003
0.16934943 -0.072971091 0.36600003
0.17031316 -0.072971091 0.36600003
0.17127691 -0.072971091 0.36600003
0.17224064 -0.072971091 0.36600003
0.17320439 -0.072971091 0.36600003
-0.17441851 -0.058628932 0.29800001
-0.17421649 -0.058825675 0.29900002
-0.1740092 -0.059022415 0.30000001
-0.17379665 -0.059219159 0.30100003
-0.17369689 -0.060006119 0.30500001
-0.17402752 -0.060399603 0.30700001
-0.17434758 -0.060793087 0.30900002
-0.17465714 -0.061186571 0.31100002
-0.17439719 -0.061383311 0.31200001
-0.17468831 -0.061776794 0.31400001
-0.17441519 -0.061973538 0.31500003
-0.1741368 -0.062170278 0.31600001
-0.1744016 -0.062563762 0.31800002
-0.17411004 -0.062760502 0.31900001
-0.1743564 -0.063153982 0.32100001
-0.17459221 -0.06354747 0.32300001
-0.17427959 -0.063744202 0.324
-0.17396173 -0.06394095 0.32500002
-0.17363858 -0.06413769 0.32600001
-0.17331018 -0.06433443 0.32700002
-0.17350385 -0.064727917 0.32900003
-0.17316227 -0.064924657 0.33000001
-0.17333753 -0.065318137 0.33200002
-0.17350227 -0.065711625 0.33400002
-0.17365646 -0.066105105 0.33600003
-0.17380011 -0.066498592 0.33800003
-0.17393322 -0.066892065 0.34
-0.17405583 -0.067285553 0.34200001
-0.17416789 -0.067679033 0.34400001
-0.17426942 -0.06807252 0.34600002
-0.17436041 -0.068466 0.34800002
-0.17394246 -0.06866274 0.34900001
-0.17401503 -0.06905622 0.35100001
-0.17407706 -0.069449708 0.35300002
-0.17412856 -0.069843188 0.35500002
-0.17416954 -0.070236675 0.35700002
-0.17371473 -0.070433415 0.35800001
-0.17325467 -0.070630156 0.35900003
-0.17278932 -0.070826896 0.36000001
-0.17231873 -0.071023643 0.36100003
-0.17184286 -0.071220383 0.36200002
-0.17136171 -0.071417116 0.36300001
-0.17087531 -0.071613863 0.36400002
-0.17038363 -0.071810603 0.36500001
-0.16942254 -0.071810603 0.36500001
-0.16846144 -0.071810603 0.36500001
-0.16795923 -0.072007351 0.36600003
-0.1669955 -0.072007351 0.36600003
-0.16603175 -0.072007351 0.36600003
-0.16506802 -0.072007351 0.36600003
-0.16410427 -0.072007351 0.36600003
-0.16314054 -0.072007351 0.36600003
-0.1621768 -0.072007351 0.36600003
-0.16121306 -0.072007351 0.36600003
-0.16024932 -0.072007351 0.36600003
-0.15928558 -0.072007351 0.36600003
-0.15832184 -0.072007351 0.36600003
-0.15735811 -0.072007351 0.36600003
-0.15639436 -0.072007351 0.36600003
-0.15543063 -0.072007351 0.36600003
-0.15446688 -0.072007351 0.36600003
-0.15350315 -0.072007351 0.36600003
-0.15253942 -0.072007351 0.36600003
-0.15157567 -0.072007351 0.36600003
-0.15061194 -0.072007351 0.36600003
-0.14964819 -0.072007351 0.36600003
-0.14868446 -0.072007351 0.36600003
-0.14772072 -0.072007351 0.36600003
-0.14675698 -0.072007351 0.36600003
-0.14579324 -0.072007351 0.36600003
-0.1448295 -0.072007351 0.36600003
-0.14347269 -0.071810603 0.36500001
-0.14251156 -0.071810603 0.36500001
-0.14155047 -0.071810603 0.36500001
-0.14058937 -0.071810603 0.36500001
-0.13962825 -0.071810603 0.36500001
-0.13866715 -0.071810603 0.36500001
-0.13770604 -0.071810603 0.36500001
-0.13674493 -0.071810603 0.36500001
-0.13578384 -0.071810603 0.36500001
-0.13482273 -0.071810603 0.36500001
-0.13422838 -0.072007351 0.36600003
-0.13326463 -0.072007351 0.36600003
-0.1323009 -0.072007351 0.36600003
-0.13133715 -0.072007351 0.36600003
-0.13037342 -0.072007351 0.36600003
-0.12940967 -0.072007351 0.36600003
-0.12844594 -0.072007351 0.36600003
-0.12748219 -0.072007351 0.36600003
-0.12651846 -0.072007351 0.36600003
-0.12555471 -0.072007351 0.36600003
-0.12459099 -0.072007351 0.36600003
-0.12362724 -0.072007351 0.36600003
-0.12266351 -0.072007351 0.36600003
-0.12169976 -0.072007351 0.36600003
-0.12073603 -0.072007351 0.36600003
-0.11977229 -0.072007351 0.36600003
-0.11880855 -0.072007351 0.36600003
-0.11784481 -0.072007351 0.36600003
-0.11688107 -0.072007351 0.36600003
-0.11591733 -0.072007351 0.36600003
-0.11495359 -0.072007351 0.36600003
-0.11398984 -0.072007351 0.36600003
-0.11302611 -0.072007351 0.36600003
-0.11206236 -0.072007351 0.36600003
-0.11109863 -0.072007351 0.36600003
-0.11013488 -0.072007351 0.36600003
-0.10917115 -0.072007351 0.36600003
-0.10820742 -0.072007351 0.36600003
-0.10724367 -0.072007351 0.36600003
-0.10627994 -0.072007351 0.36600003
-0.10531619 -0.072007351 0.36600003
-0.10435246 -0.072007351 0.36600003
-0.10338873 -0.072007351 0.36600003
-0.10242498 -0.072007351 0.36600003
-0.10146125 -0.072007351 0.36600003
-0.1004975 -0.072007351 0.36600003
-0.099533767 -0.072007351 0.36600003
-0.098570026 -0.072007351 0.36600003
-0.097606286 -0.072007351 0.36600003
-0.096642546 -0.072007351 0.36600003
-0.095678806 -0.072007351 0.36600003
-0.094715066 -0.072007351 0.36600003
-0.093751326 -0.072007351 0.36600003
-0.092787586 -0.072007351 0.36600003
-0.091823854 -0.072007351 0.36600003
-0.090860106 -0.072007351 0.36600003
-0.089896373 -0.072007351 0.36600003
-0.088932633 -0.072007351 0.36600003
-0.087968893 -0.072007351 0.36600003
-0.087005153 -0.072007351 0.36600003
-0.086041413 -0.072007351 0.36600003
-0.085077681 -0.072007351 0.36600003
-0.084113941 -0.072007351 0.36600003
-0.083150201 -0.072007351 0.36600003
-0.08218646 -0.072007351 0.36600003
-0.08122272 -0.072007351 0.36600003
-0.08025898 -0.072007351 0.36600003
-0.079295248 -0.072007351 0.36600003
-0.078331508 -0.072007351 0.36600003
-0.077367768 -0.072007351 0.36600003
-0.076404028 -0.072007351 0.36600003
-0.075440288 -0.072007351 0.36600003
-0.074476548 -0.072007351 0.36600003
-0.073512807 -0.072007351 0.36600003
-0.072549067 -0.072007351 0.36600003
-0.071780913 -0.072204083 0.36700001
-0.070814542 -0.072204083 0.36700001
-0.069848172 -0.072204083 0.36700001
-0.068694115 -0.072007351 0.36600003
-0.067730375 -0.072007351 0.36600003
-0.066766635 -0.072007351 0.36600003
-0.065802895 -0.072007351 0.36600003
-0.064839154 -0.072007351 0.36600003
-0.063875414 -0.072007351 0.36600003
-0.062911682 -0.072007351 0.36600003
-0.061947942 -0.072007351 0.36600003
-0.060984202 -0.072007351 0.36600003
-0.060020462 -0.072007351 0.36600003
-0.059056722 -0.072007351 0.36600003
-0.058092985 -0.072007351 0.36600003
-0.057129245 -0.072007351 0.36600003
-0.056165505 -0.072007351 0.36600003
-0.055201765 -0.072007351 0.36600003
-0.054238025 -0.072007351 0.36600003
-0.053274285 -0.072007351 0.36600003
-0.052310552 -0.072007351 0.36600003
-0.051346812 -0.072007351 0.36600003
-0.050245412 -0.071810603 0.36500001
-0.049419332 -0.072007351 0.36600003
-0.048455592 -0.072007351 0.36600003
-0.047491852 -0.072007351 0.36600003
-0.046528116 -0.072007351 0.36600003
-0.045564376 -0.072007351 0.36600003
-0.044600636 -0.072007351 0.36600003
-0.043636896 -0.072007351 0.36600003
-0.042673159 -0.072007351 0.36600003
-0.041709419 -0.072007351 0.36600003
-0.040745679 -0.072007351 0.36600003
-0.039781943 -0.072007351 0.36600003
-0.038818203 -0.072007351 0.36600003
-0.037854463 -0.072007351 0.36600003
-0.036890727 -0.072007351 0.36600003
-0.035926986 -0.072007351 0.36600003
-0.034963246 -0.072007351 0.36600003
-0.033999506 -0.072007351 0.36600003
-0.033035766 -0.072007351 0.36600003
-0.03207203 -0.072007351 0.36600003
-0.03110829 -0.072007351 0.36600003
-0.03014455 -0.072007351 0.36600003
-0.029180814 -0.072007351 0.36600003
-0.028217074 -0.072007351 0.36600003
-0.027253333 -0.072007351 0.36600003
-0.026289595 -0.072007351 0.36600003
-0.025325855 -0.072007351 0.36600003
-0.024362115 -0.072007351 0.36600003
-0.023398379 -0.072007351 0.36600003
-0.022434639 -0.072007351 0.36600003
-0.021470899 -0.072007351 0.36600003
-0.020507161 -0.072007351 0.36600003
-0.019543421 -0.072007351 0.36600003
-0.018579682 -0.072007351 0.36600003
-0.017615944 -0.072007351 0.36600003
-0.016652204 -0.072007351 0.36600003
-0.015688464 -0.072007351 0.36600003
-0.014724726 -0.072007351 0.36600003
-0.013760988 -0.072007351 0.36600003
-0.012797248 -0.072007351 0.36600003
-0.011833508 -0.072007351 0.36600003
-0.01086977 -0.072007351 0.36600003
-0.0099060303 -0.072007351 0.36600003
-0.0089422911 -0.072007351 0.36600003
-0.007978553 -0.072007351 0.36600003
-0.0070148134 -0.072007351 0.36600003
-0.0060510747 -0.072007351 0.36600003
-0.0050873351 -0.072007351 0.36600003
-0.004123596 -0.072007351 0.36600003
-0.0031598571 -0.072007351 0.36600003
-0.002196118 -0.072007351 0.36600003
-0.0012323789 -0.072007351 0.36600003
-0.00026863991 -0.072007351 0.36600003
0.00069509918 -0.072007351 0.36600003
0.0016588382 -0.072007351 0.36600003
0.0026225774 -0.072007351 0.36600003
0.0035863162 -0.072007351 0.36600003
0.0045500551 -0.072007351 0.36600003
0.0055137947 -0.072007351 0.36600003
0.0064775338 -0.072007351 0.36600003
0.0074412725 -0.072007351 0.36600003
0.0084050121 -0.072007351 0.36600003
0.0093687512 -0.072007351 0.36600003
0.010332489 -0.072007351 0.36600003
0.011296229 -0.072007351 0.36600003
0.012259968 -0.072007351 0.36600003
0.013223707 -0.072007351 0.36600003
0.014187447 -0.072007351 0.36600003
0.015151185 -0.072007351 0.36600003
0.016114924 -0.072007351 0.36600003
0.017078664 -0.072007351 0.36600003
0.018042402 -0.072007351 0.36600003
0.019006141 -0.072007351 0.36600003
0.019969881 -0.072007351 0.36600003
0.020933621 -0.072007351 0.36600003
0.021897359 -0.072007351 0.36600003
0.022861097 -0.072007351 0.36600003
0.023824837 -0.072007351 0.36600003
0.024788575 -0.072007351 0.36600003
0.025752315 -0.072007351 0.36600003
0.026716055 -0.072007351 0.36600003
0.027679792 -0.072007351 0.36600003
0.028643532 -0.072007351 0.36600003
0.029607272 -0.072007351 0.36600003
0.03057101 -0.072007351 0.36600003
0.03153475 -0.072007351 0.36600003
0.03249849 -0.072007351 0.36600003
0.033462226 -0.072007351 0.36600003
0.034425966 -0.072007351 0.36600003
0.035389706 -0.072007351 0.36600003
0.036353443 -0.072007351 0.36600003
0.037317183 -0.072007351 0.36600003
0.038280923 -0.072007351 0.36600003
0.039244663 -0.072007351 0.36600003
0.040208403 -0.072007351 0.36600003
0.041172139 -0.072007351 0.36600003
0.042135879 -0.072007351 0.36600003
0.043099619 -0.072007351 0.36600003
0.044063356 -0.072007351 0.36600003
0.045027096 -0.072007351 0.36600003
0.045990832 -0.072007351 0.36600003
0.046954572 -0.072007351 0.36600003
0.047918312 -0.072007351 0.36600003
0.048882052 -0.072007351 0.36600003
0.049845792 -0.072007351 0.36600003
0.050809529 -0.072007351 0.36600003
0.051773269 -0.072007351 0.36600003
0.052737009 -0.072007351 0.36600003
0.053700749 -0.072007351 0.36600003
0.054664489 -0.072007351 0.36600003
0.055628229 -0.072007351 0.36600003
0.056591962 -0.072007351 0.36600003
0.057555702 -0.072007351 0.36600003
0.058519442 -0.072007351 0.36600003
0.059483182 -0.072007351 0.36600003
0.060446922 -0.072007351 0.36600003
0.061410658 -0.072007351 0.36600003
0.062374398 -0.072007351 0.36600003
0.063338138 -0.072007351 0.36600003
0.064301878 -0.072007351 0.36600003
0.065265618 -0.072007351 0.36600003
0.066229358 -0.072007351 0.36600003
0.067193091 -0.072007351 0.36600003
0.068156831 -0.072007351 0.36600003
0.069120571 -0.072007351 0.36600003
0.070084311 -0.072007351 0.36600003
0.071048051 -0.072007351 0.36600003
0.072011791 -0.072007351 0.36600003
0.072975524 -0.072007351 0.36600003
0.073939264 -0.072007351 0.36600003
0.074903004 -0.072007351 0.36600003
0.075866744 -0.072007351 0.36600003
0.076830484 -0.072007351 0.36600003
0.077794224 -0.072007351 0.36600003
0.078757964 -0.072007351 0.36600003
0.079721704 -0.072007351 0.36600003
0.080685444 -0.072007351 0.36600003
0.081649184 -0.072007351 0.36600003
0.082612924 -0.072007351 0.36600003
0.083576657 -0.072007351 0.36600003
0.084540397 -0.072007351 0.36600003
0.08573775 -0.072204083 0.36700001
0.086704127 -0.072204083 0.36700001
0.087670498 -0.072204083 0.36700001
0.088395357 -0.072007351 0.36600003
0.08935909 -0.072007351 0.36600003
0.09032283 -0.072007351 0.36600003
0.09128657 -0.072007351 0.36600003
0.09225031 -0.072007351 0.36600003
0.093214042 -0.072007351 0.36600003
0.09417779 -0.072007351 0.36600003
0.095141523 -0.072007351 0.36600003
0.09610527 -0.072007351 0.36600003
0.097069003 -0.072007351 0.36600003
0.098032743 -0.072007351 0.36600003
0.098996483 -0.072007351 0.36600003
0.099960223 -0.072007351 0.36600003
0.10092396 -0.072007351 0.36600003
0.1018877 -0.072007351 0.36600003
0.10285144 -0.072007351 0.36600003
0.10381518 -0.072007351 0.36600003
0.10477892 -0.072007351 0.36600003
0.10574266 -0.072007351 0.36600003
0.1067064 -0.072007351 0.36600003
0.10767013 -0.072007351 0.36600003
0.10863388 -0.072007351 0.36600003
0.10989705 -0.072204083 0.36700001
0.11056136 -0.072007351 0.36600003
0.11152509 -0.072007351 0.36600003
0.11248884 -0.072007351 0.36600003
0.11345257 -0.072007351 0.36600003
0.1144163 -0.072007351 0.36600003
0.11538005 -0.072007351 0.36600003
0.11634378 -0.072007351 0.36600003
0.11730753 -0.072007351 0.36600003
0.11827126 -0.072007351 0.36600003
0.119235 -0.072007351 0.36600003
0.12019874 -0.072007351 0.36600003
0.12116248 -0.072007351 0.36600003
0.12212622 -0.072007351 0.36600003
0.12342627 -0.072204083 0.36700001
0.12439264 -0.072204083 0.36700001
0.12535901 -0.072204083 0.36700001
0.12632538 -0.072204083 0.36700001
0.12729175 -0.072204083 0.36700001
0.12790865 -0.072007351 0.36600003
0.12887239 -0.072007351 0.36600003
0.12983613 -0.072007351 0.36600003
0.13079987 -0.072007351 0.36600003
0.13176361 -0.072007351 0.36600003
0.13272735 -0.072007351 0.36600003
0.13369109 -0.072007351 0.36600003
0.13465483 -0.072007351 0.36600003
0.13561857 -0.072007351 0.36600003
0.13658231 -0.072007351 0.36600003
0.13754605 -0.072007351 0.36600003
0.1385098 -0.072007351 0.36600003
0.13947353 -0.072007351 0.36600003
0.14043726 -0.072007351 0.36600003
0.14140101 -0.072007351 0.36600003
0.14236474 -0.072007351 0.36600003
0.14332849 -0.072007351 0.36600003
0.14429222 -0.072007351 0.36600003
0.14525597 -0.072007351 0.36600003
0.1462197 -0.072007351 0.36600003
0.14718343 -0.072007351 0.36600003
0.14814718 -0.072007351 0.36600003
0.14911091 -0.072007351 0.36600003
0.15007466 -0.072007351 0.36600003
0.15103839 -0.072007351 0.36600003
0.15200213 -0.072007351 0.36600003
0.15296587 -0.072007351 0.36600003
0.15392961 -0.072007351 0.36600003
0.15489335 -0.072007351 0.36600003
0.15585709 -0.072007351 0.36600003
0.15682082 -0.072007351 0.36600003
0.15778457 -0.072007351 0.36600003
0.1587483 -0.072007351 0.36600003
0.15971205 -0.072007351 0.36600003
0.16067578 -0.072007351 0.36600003
0.16163953 -0.072007351 0.36600003
0.16260326 -0.072007351 0.36600003
0.16356699 -0.072007351 0.36600003
0.16453074 -0.072007351 0.36600003
0.16594665 -0.072204083 0.36700001
0.16645822 -0.072007351 0.36600003
0.16742195 -0.072007351 0.36600003
0.16838568 -0.072007351 0.36600003
0.16934943 -0.072007351 0.36600003
0.17031316 -0.072007351 0.36600003
0.17127691 -0.072007351 0.36600003
0.17224064 -0.072007351 0.36600003
0.17320439 -0.072007351 0.36600003
-0.17500381 -0.058038358 0.29900002
-0.17421649 -0.058038358 0.29900002
-0.1740092 -0.058232464 0.30000001
-0.1742664 -0.059397116 0.30600002
-0.17459439 -0.059785333 0.30800003
-0.17434758 -0.059979439 0.30900002
-0.17465714 -0.060367655 0.31100002
-0.17439719 -0.060561761 0.31200001
-0.17413199 -0.060755871 0.31300002
-0.17441519 -0.061144087 0.31500003
-0.1741368 -0.061338194 0.31600001
-0.1744016 -0.061726414 0.31800002
-0.17411004 -0.061920516 0.31900001
-0.1743564 -0.062308736 0.32100001
-0.17459221 -0.062696949 0.32300001
-0.17427959 -0.062891059 0.324
-0.17396173 -0.063085169 0.32500002
-0.17363858 -0.063279279 0.32600001
-0.17331018 -0.063473389 0.32700002
-0.17350385 -0.063861601 0.32900003
-0.17316227 -0.064055711 0.33000001
-0.17333753 -0.064443924 0.33200002
-0.17350227 -0.064832143 0.33400002
-0.17365646 -0.065220363 0.33600003
-0.17380011 -0.065608576 0.33800003
-0.17393322 -0.065996788 0.34
-0.17405583 -0.066385008 0.34200001
-0.17416789 -0.066773221 0.34400001
-0.17426942 -0.067161441 0.34600002
-0.17436041 -0.067549661 0.34800002
-0.17394246 -0.067743763 0.34900001
-0.17401503 -0.068131983 0.35100001
-0.17407706 -0.068520196 0.35300002
-0.17412856 -0.068908416 0.35500002
-0.17416954 -0.069296636 0.35700002
-0.17371473 -0.069490738 0.35800001
-0.17325467 -0.069684848 0.35900003
-0.17278932 -0.069878958 0.36000001
-0.17231873 -0.070073068 0.36100003
-0.17184286 -0.070267171 0.36200002
-0.17136171 -0.070461281 0.36300001
-0.17087531 -0.070655391 0.36400002
-0.17038363 -0.070849493 0.36500001
-0.16942254 -0.070849493 0.36500001
-0.16846144 -0.070849493 0.36500001
-0.16795923 -0.071043611 0.36600003
-0.1669955 -0.071043611 0.36600003
-0.16603175 -0.071043611 0.36600003
-0.16506802 -0.071043611 0.36600003
-0.16410427 -0.071043611 0.36600003
-0.16314054 -0.071043611 0.36600003
-0.1621768 -0.071043611 0.36600003
-0.16121306 -0.071043611 0.36600003
-0.16024932 -0.071043611 0.36600003
-0.15928558 -0.071043611 0.36600003
-0.15832184 -0.071043611 0.36600003
-0.15735811 -0.071043611 0.36600003
-0.15639436 -0.071043611 0.36600003
-0.15543063 -0.071043611 0.36600003
-0.15446688 -0.071043611 0.36600003
-0.15350315 -0.071043611 0.36600003
-0.15253942 -0.071043611 0.36600003
-0.15157567 -0.071043611 0.36600003
-0.15061194 -0.071043611 0.36600003
-0.14964819 -0.071043611 0.36600003
-0.14868446 -0.071043611 0.36600003
-0.14772072 -0.071043611 0.36600003
-0.14675698 -0.071043611 0.36600003
-0.14579324 -0.071043611 0.36600003
-0.14443378 -0.070849493 0.36500001
-0.14347269 -0.070849493 0.36500001
-0.14251156 -0.070849493 0.36500001
-0.14155047 -0.070849493 0.36500001
-0.14058937 -0.070849493 0.36500001
-0.13962825 -0.070849493 0.36500001
-0.13866715 -0.070849493 0.36500001
-0.13770604 -0.070849493 0.36500001
-0.13674493 -0.070849493 0.36500001
-0.13578384 -0.070849493 0.36500001
-0.13482273 -0.070849493 0.36500001
-0.13422838 -0.071043611 0.36600003
-0.13326463 -0.071043611 0.36600003
-0.1323009 -0.071043611 0.36600003
-0.13133715 -0.071043611 0.36600003
-0.13037342 -0.071043611 0.36600003
-0.12940967 -0.071043611 0.36600003
-0.12844594 -0.071043611 0.36600003
-0.12748219 -0.071043611 0.36600003
-0.12651846 -0.071043611 0.36600003
-0.12555471 -0.071043611 0.36600003
-0.12459099 -0.071043611 0.36600003
-0.12362724 -0.071043611 0.36600003
-0.12266351 -0.071043611 0.36600003
-0.12169976 -0.071043611 0.36600003
-0.12073603 -0.071043611 0.36600003
-0.11977229 -0.071043611 0.36600003
-0.11880855 -0.071043611 0.36600003
-0.11784481 -0.071043611 0.36600003
-0.11688107 -0.071043611 0.36600003
-0.11591733 -0.071043611 0.36600003
-0.11495359 -0.071043611 0.36600003
-0.11398984 -0.071043611 0.36600003
-0.11302611 -0.071043611 0.36600003
-0.11206236 -0.071043611 0.36600003
-0.11109863 -0.071043611 0.36600003
-0.11013488 -0.071043611 0.36600003
-0.10917115 -0.071043611 0.36600003
-0.10820742 -0.071043611 0.36600003
-0.10724367 -0.071043611 0.36600003
-0.10627994 -0.071043611 0.36600003
-0.10531619 -0.071043611 0.36600003
-0.10435246 -0.071043611 0.36600003
-0.10338873 -0.071043611 0.36600003
-0.10242498 -0.071043611 0.36600003
-0.10146125 -0.071043611 0.36600003
-0.1004975 -0.071043611 0.36600003
-0.099533767 -0.071043611 0.36600003
-0.098570026 -0.071043611 0.36600003
-0.097606286 -0.071043611 0.36600003
-0.096642546 -0.071043611 0.36600003
-0.095678806 -0.071043611 0.36600003
-0.094715066 -0.071043611 0.36600003
-0.093751326 -0.071043611 0.36600003
-0.092787586 -0.071043611 0.36600003
-0.091823854 -0.071043611 0.36600003
-0.090860106 -0.071043611 0.36600003
-0.089896373 -0.071043611 0.36600003
-0.088932633 -0.071043611 0.36600003
-0.087968893 -0.071043611 0.36600003
-0.087005153 -0.071043611 0.36600003
-0.086041413 -0.071043611 0.36600003
-0.085077681 -0.071043611 0.36600003
-0.084113941 -0.071043611 0.36600003
-0.083150201 -0.071043611 0.36600003
-0.08218646 -0.071043611 0.36600003
-0.08122272 -0.071043611 0.36600003
-0.08025898 -0.071043611 0.36600003
-0.079295248 -0.071043611 0.36600003
-0.078331508 -0.071043611 0.36600003
-0.077367768 -0.071043611 0.36600003
-0.076404028 -0.071043611 0.36600003
-0.075440288 -0.071043611 0.36600003
-0.074476548 -0.071043611 0.36600003
-0.073512807 -0.071043611 0.36600003
-0.07274729 -0.071237713 0.36700001
-0.071780913 -0.071237713 0.36700001
-0.070814542 -0.071237713 0.36700001
-0.069848172 -0.071237713 0.36700001
-0.068881802 -0.071237713 0.36700001
-0.067915432 -0.071237713 0.36700001
-0.066766635 -0.071043611 0.36600003
-0.065802895 -0.071043611 0.36600003
-0.064839154 -0.071043611 0.36600003
-0.063875414 -0.071043611 0.36600003
-0.062911682 -0.071043611 0.36600003
-0.061947942 -0.071043611 0.36600003
-0.060984202 -0.071043611 0.36600003
-0.060020462 -0.071043611 0.36600003
-0.059056722 -0.071043611 0.36600003
-0.058092985 -0.071043611 0.36600003
-0.057129245 -0.071043611 0.36600003
-0.056165505 -0.071043611 0.36600003
-0.055201765 -0.071043611 0.36600003
-0.054238025 -0.071043611 0.36600003
-0.053274285 -0.071043611 0.36600003
-0.052167624 -0.070849493 0.36500001
-0.051206518 -0.070849493 0.36500001
-0.050245412 -0.070849493 0.36500001
-0.049419332 -0.071043611 0.36600003
-0.048455592 -0.071043611 0.36600003
-0.047491852 -0.071043611 0.36600003
-0.046528116 -0.071043611 0.36600003
-0.045564376 -0.071043611 0.36600003
-0.044600636 -0.071043611 0.36600003
-0.043636896 -0.071043611 0.36600003
-0.042673159 -0.071043611 0.36600003
-0.041709419 -0.071043611 0.36600003
-0.040745679 -0.071043611 0.36600003
-0.039781943 -0.071043611 0.36600003
-0.038818203 -0.071043611 0.36600003
-0.037854463 -0.071043611 0.36600003
-0.036890727 -0.071043611 0.36600003
-0.035926986 -0.071043611 0.36600003
-0.034963246 -0.071043611 0.36600003
-0.033999506 -0.071043611 0.36600003
-0.033035766 -0.071043611 0.36600003
-0.03207203 -0.071043611 0.36600003
-0.03110829 -0.071043611 0.36600003
-0.03014455 -0.071043611 0.36600003
-0.029180814 -0.071043611 0.36600003
-0.028217074 -0.071043611 0.36600003
-0.027253333 -0.071043611 0.36600003
-0.026289595 -0.071043611 0.36600003
-0.025325855 -0.071043611 0.36600003
-0.024362115 -0.071043611 0.36600003
-0.023398379 -0.071043611 0.36600003
-0.022434639 -0.071043611 0.36600003
-0.021470899 -0.071043611 0.36600003
-0.020507161 -0.071043611 0.36600003
-0.019543421 -0.071043611 0.36600003
-0.018579682 -0.071043611 0.36600003
-0.017615944 -0.071043611 0.36600003
-0.016652204 -0.071043611 0.36600003
-0.015688464 -0.071043611 0.36600003
-0.014724726 -0.071043611 0.36600003
-0.013760988 -0.071043611 0.36600003
-0.012797248 -0.071043611 0.36600003
-0.011833508 -0.071043611 0.36600003
-0.01086977 -0.071043611 0.36600003
-0.0099060303 -0.071043611 0.36600003
-0.0089422911 -0.071043611 0.36600003
-0.007978553 -0.071043611 0.36600003
-0.0070148134 -0.071043611 0.36600003
-0.0060510747 -0.071043611 0.36600003
-0.0050873351 -0.071043611 0.36600003
-0.004123596 -0.071043611 0.36600003
-0.0031598571 -0.071043611 0.36600003
-0.002196118 -0.071043611 0.36600003
-0.0012323789 -0.071043611 0.36600003
-0.00026863991 -0.071043611 0.36600003
0.00069509918 -0.071043611 0.36600003
0.0016588382 -0.071043611 0.36600003
0.0026225774 -0.071043611 0.36600003
0.0035863162 -0.071043611 0.36600003
0.0045500551 -0.071043611 0.36600003
0.0055137947 -0.071043611 0.36600003
0.0064775338 -0.071043611 0.36600003
0.0074412725 -0.071043611 0.36600003
0.0084050121 -0.071043611 0.36600003
0.0093687512 -0.071043611 0.36600003
0.010332489 -0.071043611 0.36600003
0.011296229 -0.071043611 0.36600003
0.012259968 -0.071043611 0.36600003
0.013223707 -0.071043611 0.36600003
0.014187447 -0.071043611 0.36600003
0.015151185 -0.071043611 0.36600003
0.016114924 -0.071043611 0.36600003
0.017078664 -0.071043611 0.36600003
0.018042402 -0.071043611 0.36600003
0.019006141 -0.071043611 0.36600003
0.019969881 -0.071043611 0.36600003
0.020933621 -0.071043611 0.36600003
0.021897359 -0.071043611 0.36600003
0.022861097 -0.071043611 0.36600003
0.023824837 -0.071043611 0.36600003
0.024788575 -0.071043611 0.36600003
0.025752315 -0.071043611 0.36600003
0.026716055 -0.071043611 0.36600003
0.027679792 -0.071043611 0.36600003
0.028643532 -0.071043611 0.36600003
0.029607272 -0.071043611 0.36600003
0.03057101 -0.071043611 0.36600003
0.03153475 -0.071043611 0.36600003
0.03249849 -0.071043611 0.36600003
0.033462226 -0.071043611 0.36600003
0.034425966 -0.071043611 0.36600003
0.035389706 -0.071043611 0.36600003
0.036353443 -0.071043611 0.36600003
0.037317183 -0.071043611 0.36600003
0.038280923 -0.071043611 0.36600003
0.039244663 -0.071043611 0.36600003
0.040208403 -0.071043611 0.36600003
0.041172139 -0.071043611 0.36600003
0.042135879 -0.071043611 0.36600003
0.043099619 -0.071043611 0.36600003
0.044063356 -0.071043611 0.36600003
0.045027096 -0.071043611 0.36600003
0.045990832 -0.071043611 0.36600003
0.046954572 -0.071043611 0.36600003
0.047918312 -0.071043611 0.36600003
0.048882052 -0.071043611 0.36600003
0.049845792 -0.071043611 0.36600003
0.050809529 -0.071043611 0.36600003
0.051773269 -0.071043611 0.36600003
0.052737009 -0.071043611 0.36600003
0.053700749 -0.071043611 0.36600003
0.054664489 -0.071043611 0.36600003
0.055628229 -0.071043611 0.36600003
0.056591962 -0.071043611 0.36600003
0.057555702 -0.071043611 0.36600003
0.058519442 -0.071043611 0.36600003
0.059483182 -0.071043611 0.36600003
0.060446922 -0.071043611 0.36600003
0.061410658 -0.071043611 0.36600003
0.062374398 -0.071043611 0.36600003
0.063338138 -0.071043611 0.36600003
0.064301878 -0.071043611 0.36600003
0.065265618 -0.071043611 0.36600003
0.066229358 -0.071043611 0.36600003
0.067193091 -0.071043611 0.36600003
0.068156831 -0.071043611 0.36600003
0.069120571 -0.071043611 0.36600003
0.070084311 -0.071043611 0.36600003
0.071048051 -0.071043611 0.36600003
0.072011791 -0.071043611 0.36600003
0.072975524 -0.071043611 0.36600003
0.073939264 -0.071043611 0.36600003
0.074903004 -0.071043611 0.36600003
0.075866744 -0.071043611 0.36600003
0.076830484 -0.071043611 0.36600003
0.077794224 -0.071043611 0.36600003
0.078757964 -0.071043611 0.36600003
0.079721704 -0.071043611 0.36600003
0.080685444 -0.071043611 0.36600003
0.081649184 -0.071043611 0.36600003
0.08283864 -0.071237713 0.36700001
0.083576657 -0.071043611 0.36600003
0.08477138 -0.071237713 0.36700001
0.08573775 -0.071237713 0.36700001
0.086704127 -0.071237713 0.36700001
0.087670498 -0.071237713 0.36700001
0.088636868 -0.071237713 0.36700001
0.089603238 -0.071237713 0.36700001
0.09032283 -0.071043611 0.36600003
0.09128657 -0.071043611 0.36600003
0.09225031 -0.071043611 0.36600003
0.093214042 -0.071043611 0.36600003
0.09417779 -0.071043611 0.36600003
0.095141523 -0.071043611 0.36600003
0.09610527 -0.071043611 0.36600003
0.097069003 -0.071043611 0.36600003
0.098032743 -0.071043611 0.36600003
0.098996483 -0.071043611 0.36600003
0.099960223 -0.071043611 0.36600003
0.10092396 -0.071043611 0.36600003
0.1018877 -0.071043611 0.36600003
0.10285144 -0.071043611 0.36600003
0.10381518 -0.071043611 0.36600003
0.10477892 -0.071043611 0.36600003
0.10574266 -0.071043611 0.36600003
0.1067064 -0.071043611 0.36600003
0.10767013 -0.071043611 0.36600003
0.10863388 -0.071043611 0.36600003
0.10989705 -0.071237713 0.36700001
0.11056136 -0.071043611 0.36600003
0.11152509 -0.071043611 0.36600003
0.11248884 -0.071043611 0.36600003
0.11345257 -0.071043611 0.36600003
0.1144163 -0.071043611 0.36600003
0.11538005 -0.071043611 0.36600003
0.11634378 -0.071043611 0.36600003
0.11730753 -0.071043611 0.36600003
0.11827126 -0.071043611 0.36600003
0.119235 -0.071043611 0.36600003
0.12019874 -0.071043611 0.36600003
0.12116248 -0.071043611 0.36600003
0.12212622 -0.071043611 0.36600003
0.12308996 -0.071043611 0.36600003
0.12439264 -0.071237713 0.36700001
0.12535901 -0.071237713 0.36700001
0.12598117 -0.071043611 0.36600003
0.12694491 -0.071043611 0.36600003
0.12790865 -0.071043611 0.36600003
0.12887239 -0.071043611 0.36600003
0.12983613 -0.071043611 0.36600003
0.13079987 -0.071043611 0.36600003
0.13176361 -0.071043611 0.36600003
0.13272735 -0.071043611 0.36600003
0.13369109 -0.071043611 0.36600003
0.13465483 -0.071043611 0.36600003
0.13561857 -0.071043611 0.36600003
0.13658231 -0.071043611 0.36600003
0.13754605 -0.071043611 0.36600003
0.1385098 -0.071043611 0.36600003
0.13947353 -0.071043611 0.36600003
0.14043726 -0.071043611 0.36600003
0.14140101 -0.071043611 0.36600003
0.14236474 -0.071043611 0.36600003
0.14332849 -0.071043611 0.36600003
0.14429222 -0.071043611 0.36600003
0.14525597 -0.071043611 0.36600003
0.1462197 -0.071043611 0.36600003
0.14718343 -0.071043611 0.36600003
0.14814718 -0.071043611 0.36600003
0.14911091 -0.071043611 0.36600003
0.15007466 -0.071043611 0.36600003
0.15103839 -0.071043611 0.36600003
0.15200213 -0.071043611 0.36600003
0.15296587 -0.071043611 0.36600003
0.15392961 -0.071043611 0.36600003
0.15489335 -0.071043611 0.36600003
0.15585709 -0.071043611 0.36600003
0.15682082 -0.071043611 0.36600003
0.15778457 -0.071043611 0.36600003
0.1587483 -0.071043611 0.36600003
0.15971205 -0.071043611 0.36600003
0.16067578 -0.071043611 0.36600003
0.16163953 -0.071043611 0.36600003
0.16260326 -0.071043611 0.36600003
0.16356699 -0.071043611 0.36600003
0.16453074 -0.071043611 0.36600003
0.16594665 -0.071237713 0.36700001
0.16691302 -0.071237713 0.36700001
0.16742195 -0.071043611 0.36600003
0.16838568 -0.071043611 0.36600003
0.16934943 -0.071043611 0.36600003
0.17031316 -0.071043611 0.36600003
0.17127691 -0.071043611 0.36600003
0.17224064 -0.071043611 0.36600003
0.17320439 -0.071043611 0.36600003
-0.17500381 -0.057251044 0.29900002
-0.17479916 -0.057442516 0.30000001
-0.1740092 -0.057442516 0.30000001
-0.17437404 -0.057825468 0.30200002
-0.17415358 -0.058016941 0.303
-0.1745 -0.05839989 0.30500001
-0.1742664 -0.05859137 0.30600002
-0.17459439 -0.058974322 0.30800003
-0.17434758 -0.059165794 0.30900002
-0.17465714 -0.059548743 0.31100002
-0.17439719 -0.059740216 0.31200001
-0.17413199 -0.059931695 0.31300002
-0.17441519 -0.060314644 0.31500003
-0.1741368 -0.060506117 0.31600001
-0.1744016 -0.060889069 0.31800002
-0.17411004 -0.061080541 0.31900001
-0.1743564 -0.061463494 0.32100001
-0.17459221 -0.061846443 0.32300001
-0.17427959 -0.062037915 0.324
-0.17396173 -0.062229395 0.32500002
-0.17363858 -0.062420867 0.32600001
-0.17331018 -0.062612347 0.32700002
-0.17350385 -0.0629953 0.32900003
-0.17316227 -0.063186772 0.33000001
-0.17333753 -0.063569717 0.33200002
-0.17350227 -0.06395267 0.33400002
-0.17365646 -0.064335622 0.33600003
-0.17380011 -0.064718574 0.33800003
-0.17342167 -0.064910047 0.33900002
-0.17405583 -0.065484472 0.34200001
-0.17416789 -0.065867417 0.34400001
-0.17426942 -0.066250369 0.34600002
-0.17436041 -0.066633321 0.34800002
-0.17394246 -0.066824794 0.34900001
-0.17401503 -0.067207746 0.35100001
-0.17407706 -0.067590699 0.35300002
-0.17412856 -0.067973644 0.35500002
-0.17416954 -0.068356596 0.35700002
-0.17371473 -0.068548068 0.35800001
-0.17325467 -0.068739548 0.35900003
-0.17278932 -0.068931021 0.36000001
-0.17231873 -0.069122501 0.36100003
-0.17184286 -0.069313973 0.36200002
-0.17136171 -0.069505446 0.36300001
-0.17087531 -0.069696926 0.36400002
-0.17038363 -0.069888398 0.36500001
-0.16942254 -0.069888398 0.36500001
-0.16846144 -0.069888398 0.36500001
-0.16795923 -0.070079871 0.36600003
-0.1669955 -0.070079871 0.36600003
-0.16603175 -0.070079871 0.36600003
-0.16506802 -0.070079871 0.36600003
-0.16410427 -0.070079871 0.36600003
-0.16314054 -0.070079871 0.36600003
-0.1621768 -0.070079871 0.36600003
-0.16121306 -0.070079871 0.36600003
-0.16024932 -0.070079871 0.36600003
-0.15928558 -0.070079871 0.36600003
-0.15832184 -0.070079871 0.36600003
-0.15735811 -0.070079871 0.36600003
-0.15639436 -0.070079871 0.36600003
-0.15543063 -0.070079871 0.36600003
-0.15446688 -0.070079871 0.36600003
-0.15350315 -0.070079871 0.36600003
-0.15253942 -0.070079871 0.36600003
-0.15157567 -0.070079871 0.36600003
-0.15061194 -0.070079871 0.36600003
-0.14964819 -0.070079871 0.36600003
-0.14868446 -0.070079871 0.36600003
-0.14772072 -0.070079871 0.36600003
-0.14675698 -0.070079871 0.36600003
-0.14579324 -0.070079871 0.36600003
-0.14443378 -0.069888398 0.36500001
-0.14347269 -0.069888398 0.36500001
-0.14251156 -0.069888398 0.36500001
-0.14155047 -0.069888398 0.36500001
-0.14058937 -0.069888398 0.36500001
-0.13962825 -0.069888398 0.36500001
-0.13866715 -0.069888398 0.36500001
-0.13770604 -0.069888398 0.36500001
-0.13674493 -0.069888398 0.36500001
-0.13578384 -0.069888398 0.36500001
-0.13519211 -0.070079871 0.36600003
-0.13422838 -0.070079871 0.36600003
-0.13326463 -0.070079871 0.36600003
-0.1323009 -0.070079871 0.36600003
-0.13133715 -0.070079871 0.36600003
-0.13037342 -0.070079871 0.36600003
-0.12940967 -0.070079871 0.36600003
-0.12844594 -0.070079871 0.36600003
-0.12748219 -0.070079871 0.36600003
-0.12651846 -0.070079871 0.36600003
-0.12555471 -0.070079871 0.36600003
-0.12459099 -0.070079871 0.36600003
-0.12362724 -0.070079871 0.36600003
-0.12266351 -0.070079871 0.36600003
-0.12169976 -0.070079871 0.36600003
-0.12073603 -0.070079871 0.36600003
-0.11977229 -0.070079871 0.36600003
-0.11880855 -0.070079871 0.36600003
-0.11784481 -0.070079871 0.36600003
-0.11688107 -0.070079871 0.36600003
-0.11591733 -0.070079871 0.36600003
-0.11495359 -0.070079871 0.36600003
-0.11398984 -0.070079871 0.36600003
-0.11302611 -0.070079871 0.36600003
-0.11206236 -0.070079871 0.36600003
-0.11109863 -0.070079871 0.36600003
-0.11013488 -0.070079871 0.36600003
-0.10917115 -0.070079871 0.36600003
-0.10820742 -0.070079871 0.36600003
-0.10724367 -0.070079871 0.36600003
-0.10627994 -0.070079871 0.36600003
-0.10531619 -0.070079871 0.36600003
-0.10435246 -0.070079871 0.36600003
-0.10338873 -0.070079871 0.36600003
-0.10242498 -0.070079871 0.36600003
-0.10146125 -0.070079871 0.36600003
-0.1004975 -0.070079871 0.36600003
-0.099533767 -0.070079871 0.36600003
-0.098570026 -0.070079871 0.36600003
-0.097606286 -0.070079871 0.36600003
-0.096642546 -0.070079871 0.36600003
-0.095678806 -0.070079871 0.36600003
-0.094715066 -0.070079871 0.36600003
-0.093751326 -0.070079871 0.36600003
-0.092787586 -0.070079871 0.36600003
-0.091823854 -0.070079871 0.36600003
-0.090860106 -0.070079871 0.36600003
-0.089896373 -0.070079871 0.36600003
-0.088932633 -0.070079871 0.36600003
-0.087968893 -0.070079871 0.36600003
-0.087005153 -0.070079871 0.36600003
-0.086041413 -0.070079871 0.36600003
-0.085077681 -0.070079871 0.36600003
-0.084113941 -0.070079871 0.36600003
-0.083150201 -0.070079871 0.36600003
-0.08218646 -0.070079871 0.36600003
-0.08122272 -0.070079871 0.36600003
-0.08025898 -0.070079871 0.36600003
-0.079295248 -0.070079871 0.36600003
-0.078331508 -0.070079871 0.36600003
-0.077367768 -0.070079871 0.36600003
-0.076404028 -0.070079871 0.36600003
-0.075440288 -0.070079871 0.36600003
-0.074476548 -0.070079871 0.36600003
-0.073512807 -0.070079871 0.36600003
-0.07274729 -0.070271343 0.36700001
-0.071780913 -0.070271343 0.36700001
-0.070814542 -0.070271343 0.36700001
-0.069848172 -0.070271343 0.36700001
-0.068881802 -0.070271343 0.36700001
-0.067730375 -0.070079871 0.36600003
-0.066766635 -0.070079871 0.36600003
-0.065802895 -0.070079871 0.36600003
-0.064839154 -0.070079871 0.36600003
-0.063875414 -0.070079871 0.36600003
-0.062911682 -0.070079871 0.36600003
-0.061947942 -0.070079871 0.36600003
-0.060984202 -0.070079871 0.36600003
-0.060020462 -0.070079871 0.36600003
-0.059056722 -0.070079871 0.36600003
-0.058092985 -0.070079871 0.36600003
-0.057129245 -0.070079871 0.36600003
-0.056165505 -0.070079871 0.36600003
-0.055201765 -0.070079871 0.36600003
-0.054238025 -0.070079871 0.36600003
-0.053274285 -0.070079871 0.36600003
-0.052310552 -0.070079871 0.36600003
-0.051206518 -0.069888398 0.36500001
-0.050245412 -0.069888398 0.36500001
-0.049419332 -0.070079871 0.36600003
-0.048455592 -0.070079871 0.36600003
-0.047491852 -0.070079871 0.36600003
-0.046528116 -0.070079871 0.36600003
-0.045564376 -0.070079871 0.36600003
-0.044600636 -0.070079871 0.36600003
-0.043636896 -0.070079871 0.36600003
-0.042673159 -0.070079871 0.36600003
-0.041709419 -0.070079871 0.36600003
-0.040745679 -0.070079871 0.36600003
-0.039781943 -0.070079871 0.36600003
-0.038818203 -0.070079871 0.36600003
-0.037854463 -0.070079871 0.36600003
-0.036890727 -0.070079871 0.36600003
-0.035926986 -0.070079871 0.36600003
-0.034963246 -0.070079871 0.36600003
-0.033999506 -0.070079871 0.36600003
-0.033035766 -0.070079871 0.36600003
-0.03207203 -0.070079871 0.36600003
-0.03110829 -0.070079871 0.36600003
-0.03014455 -0.070079871 0.36600003
-0.029180814 -0.070079871 0.36600003
-0.028217074 -0.070079871 0.36600003
-0.027253333 -0.070079871 0.36600003
-0.026289595 -0.070079871 0.36600003
-0.025325855 -0.070079871 0.36600003
-0.024362115 -0.070079871 0.36600003
-0.023398379 -0.070079871 0.36600003
-0.022434639 -0.070079871 0.36600003
-0.021470899 -0.070079871 0.36600003
-0.020507161 -0.070079871 0.36600003
-0.019543421 -0.070079871 0.36600003
-0.018579682 -0.070079871 0.36600003
-0.017615944 -0.070079871 0.36600003
-0.016652204 -0.070079871 0.36600003
-0.015688464 -0.070079871 0.36600003
-0.014724726 -0.070079871 0.36600003
-0.013760988 -0.070079871 0.36600003
-0.012797248 -0.070079871 0.36600003
-0.011833508 -0.070079871 0.36600003
-0.01086977 -0.070079871 0.36600003
-0.0099060303 -0.070079871 0.36600003
-0.0089422911 -0.070079871 0.36600003
-0.007978553 -0.070079871 0.36600003
-0.0070148134 -0.070079871 0.36600003
-0.0060510747 -0.070079871 0.36600003
-0.0050873351 -0.070079871 0.36600003
-0.004123596 -0.070079871 0.36600003
-0.0031598571 -0.070079871 0.36600003
-0.002196118 -0.070079871 0.36600003
-0.0012323789 -0.070079871 0.36600003
-0.00026863991 -0.070079871 0.36600003
0.00069509918 -0.070079871 0.36600003
0.0016588382 -0.070079871 0.36600003
0.0026225774 -0.070079871 0.36600003
0.0035863162 -0.070079871 0.36600003
0.0045500551 -0.070079871 0.36600003
0.0055137947 -0.070079871 0.36600003
0.0064775338 -0.070079871 0.36600003
0.0074412725 -0.070079871 0.36600003
0.0084050121 -0.070079871 0.36600003
0.0093687512 -0.070079871 0.36600003
0.010332489 -0.070079871 0.36600003
0.011296229 -0.070079871 0.36600003
0.012259968 -0.070079871 0.36600003
0.013223707 -0.070079871 0.36600003
0.014187447 -0.070079871 0.36600003
0.015151185 -0.070079871 0.36600003
0.016114924 -0.070079871 0.36600003
0.017078664 -0.070079871 0.36600003
0.018042402 -0.070079871 0.36600003
0.019006141 -0.070079871 0.36600003
0.019969881 -0.070079871 0.36600003
0.020933621 -0.070079871 0.36600003
0.021897359 -0.070079871 0.36600003
0.022861097 -0.070079871 0.36600003
0.023824837 -0.070079871 0.36600003
0.024788575 -0.070079871 0.36600003
0.025752315 -0.070079871 0.36600003
0.026716055 -0.070079871 0.36600003
0.027679792 -0.070079871 0.36600003
0.028643532 -0.070079871 0.36600003
0.029607272 -0.070079871 0.36600003
0.03057101 -0.070079871 0.36600003
0.03153475 -0.070079871 0.36600003
0.03249849 -0.070079871 0.36600003
0.033462226 -0.070079871 0.36600003
0.034425966 -0.070079871 0.36600003
0.035389706 -0.070079871 0.36600003
0.036353443 -0.070079871 0.36600003
0.037317183 -0.070079871 0.36600003
0.038280923 -0.070079871 0.36600003
0.039244663 -0.070079871 0.36600003
0.040208403 -0.070079871 0.36600003
0.041172139 -0.070079871 0.36600003
0.042135879 -0.070079871 0.36600003
0.043099619 -0.070079871 0.36600003
0.044063356 -0.070079871 0.36600003
0.045027096 -0.070079871 0.36600003
0.045990832 -0.070079871 0.36600003
0.046954572 -0.070079871 0.36600003
0.047918312 -0.070079871 0.36600003
0.048882052 -0.070079871 0.36600003
0.049845792 -0.070079871 0.36600003
0.050809529 -0.070079871 0.36600003
0.051773269 -0.070079871 0.36600003
0.052737009 -0.070079871 0.36600003
0.053700749 -0.070079871 0.36600003
0.054664489 -0.070079871 0.36600003
0.055628229 -0.070079871 0.36600003
0.056591962 -0.070079871 0.36600003
0.057555702 -0.070079871 0.36600003
0.058519442 -0.070079871 0.36600003
0.059483182 -0.070079871 0.36600003
0.060446922 -0.070079871 0.36600003
0.061410658 -0.070079871 0.36600003
0.062374398 -0.070079871 0.36600003
0.063338138 -0.070079871 0.36600003
0.064301878 -0.070079871 0.36600003
0.065265618 -0.070079871 0.36600003
0.066229358 -0.070079871 0.36600003
0.067193091 -0.070079871 0.36600003
0.068156831 -0.070079871 0.36600003
0.069120571 -0.070079871 0.36600003
0.070084311 -0.070079871 0.36600003
0.071048051 -0.070079871 0.36600003
0.072011791 -0.070079871 0.36600003
0.072975524 -0.070079871 0.36600003
0.073939264 -0.070079871 0.36600003
0.074903004 -0.070079871 0.36600003
0.075866744 -0.070079871 0.36600003
0.076830484 -0.070079871 0.36600003
0.077794224 -0.070079871 0.36600003
0.078757964 -0.070079871 0.36600003
0.079721704 -0.070079871 0.36600003
0.080685444 -0.070079871 0.36600003
0.081649184 -0.070079871 0.36600003
0.082612924 -0.070079871 0.36600003
0.083576657 -0.070079871 0.36600003
0.08477138 -0.070271343 0.36700001
0.08573775 -0.070271343 0.36700001
0.086704127 -0.070271343 0.36700001
0.087670498 -0.070271343 0.36700001
0.088636868 -0.070271343 0.36700001
0.089603238 -0.070271343 0.36700001
0.090569608 -0.070271343 0.36700001
0.091535985 -0.070271343 0.36700001
0.09225031 -0.070079871 0.36600003
0.093214042 -0.070079871 0.36600003
0.09417779 -0.070079871 0.36600003
0.095141523 -0.070079871 0.36600003
0.09610527 -0.070079871 0.36600003
0.097069003 -0.070079871 0.36600003
0.098032743 -0.070079871 0.36600003
0.098996483 -0.070079871 0.36600003
0.099960223 -0.070079871 0.36600003
0.10092396 -0.070079871 0.36600003
0.1018877 -0.070079871 0.36600003
0.10285144 -0.070079871 0.36600003
0.10381518 -0.070079871 0.36600003
0.10477892 -0.070079871 0.36600003
0.10574266 -0.070079871 0.36600003
0.10699794 -0.070271343 0.36700001
0.10796431 -0.070271343 0.36700001
0.10893068 -0.070271343 0.36700001
0.10989705 -0.070271343 0.36700001
0.11086343 -0.070271343 0.36700001
0.11152509 -0.070079871 0.36600003
0.11279618 -0.070271343 0.36700001
0.11345257 -0.070079871 0.36600003
0.1144163 -0.070079871 0.36600003
0.11538005 -0.070079871 0.36600003
0.11634378 -0.070079871 0.36600003
0.11730753 -0.070079871 0.36600003
0.11827126 -0.070079871 0.36600003
0.119235 -0.070079871 0.36600003
0.12019874 -0.070079871 0.36600003
0.12116248 -0.070079871 0.36600003
0.12212622 -0.070079871 0.36600003
0.12308996 -0.070079871 0.36600003
0.12405369 -0.070079871 0.36600003
0.12501743 -0.070079871 0.36600003
0.12598117 -0.070079871 0.36600003
0.12694491 -0.070079871 0.36600003
0.12790865 -0.070079871 0.36600003
0.12887239 -0.070079871 0.36600003
0.12983613 -0.070079871 0.36600003
0.13079987 -0.070079871 0.36600003
0.13176361 -0.070079871 0.36600003
0.13272735 -0.070079871 0.36600003
0.13369109 -0.070079871 0.36600003
0.13465483 -0.070079871 0.36600003
0.13561857 -0.070079871 0.36600003
0.13658231 -0.070079871 0.36600003
0.13754605 -0.070079871 0.36600003
0.1385098 -0.070079871 0.36600003
0.13947353 -0.070079871 0.36600003
0.14043726 -0.070079871 0.36600003
0.14140101 -0.070079871 0.36600003
0.14236474 -0.070079871 0.36600003
0.14332849 -0.070079871 0.36600003
0.14429222 -0.070079871 0.36600003
0.14525597 -0.070079871 0.36600003
0.1462197 -0.070079871 0.36600003
0.14718343 -0.070079871 0.36600003
0.14814718 -0.070079871 0.36600003
0.14911091 -0.070079871 0.36600003
0.15007466 -0.070079871 0.36600003
0.15103839 -0.070079871 0.36600003
0.15200213 -0.070079871 0.36600003
0.15296587 -0.070079871 0.36600003
0.15392961 -0.070079871 0.36600003
0.15489335 -0.070079871 0.36600003
0.15585709 -0.070079871 0.36600003
0.15682082 -0.070079871 0.36600003
0.15778457 -0.070079871 0.36600003
0.1587483 -0.070079871 0.36600003
0.15971205 -0.070079871 0.36600003
0.16067578 -0.070079871 0.36600003
0.16163953 -0.070079871 0.36600003
0.16260326 -0.070079871 0.36600003
0.16356699 -0.070079871 0.36600003
0.16453074 -0.070079871 0.36600003
0.16549447 -0.070079871 0.36600003
0.16691302 -0.070271343 0.36700001
0.16742195 -0.070079871 0.36600003
0.16838568 -0.070079871 0.36600003
0.16934943 -0.070079871 0.36600003
0.17031316 -0.070079871 0.36600003
0.17127691 -0.070079871 0.36600003
0.17224064 -0.070079871 0.36600003
0.17320439 -0.070079871 0.36600003
-0.17500381 -0.056463726 0.29900002
-0.17479916 -0.056652565 0.30000001
-0.17458925 -0.056841411 0.30100003
-0.17437404 -0.057030249 0.30200002
-0.17415358 -0.057219092 0.303
-0.1745 -0.057596773 0.30500001
-0.17434758 -0.058352143 0.30900002
-0.17465714 -0.058729827 0.31100002
-0.17439719 -0.058918666 0.31200001
-0.17413199 -0.059107512 0.31300002
-0.17441519 -0.059485197 0.31500003
-0.1741368 -0.059674036 0.31600001
-0.17459221 -0.060995929 0.32300001
-0.17427959 -0.061184768 0.324
-0.17396173 -0.061373614 0.32500002
-0.17363858 -0.061562452 0.32600001
-0.17384017 -0.061940137 0.32800001
-0.17350385 -0.062128983 0.32900003
-0.17316227 -0.062317822 0.33000001
-0.17333753 -0.062695511 0.33200002
-0.17350227 -0.063073188 0.33400002
-0.17365646 -0.063450873 0.33600003
-0.17380011 -0.063828558 0.33800003
-0.17342167 -0.0640174 0.33900002
-0.17405583 -0.064583927 0.34200001
-0.17416789 -0.064961612 0.34400001
-0.17426942 -0.06533929 0.34600002
-0.17436041 -0.065716974 0.34800002
-0.17394246 -0.065905817 0.34900001
-0.17401503 -0.066283502 0.35100001
-0.17407706 -0.066661187 0.35300002
-0.17412856 -0.067038871 0.35500002
-0.17368166 -0.067227714 0.35600001
-0.17371473 -0.067605391 0.35800001
-0.17325467 -0.067794241 0.35900003
-0.17278932 -0.067983076 0.36000001
-0.17231873 -0.068171926 0.36100003
-0.17184286 -0.068360761 0.36200002
-0.17136171 -0.068549603 0.36300001
-0.17087531 -0.068738446 0.36400002
-0.17038363 -0.068927288 0.36500001
-0.16942254 -0.068927288 0.36500001
-0.16846144 -0.068927288 0.36500001
-0.16795923 -0.06911613 0.36600003
-0.1669955 -0.06911613 0.36600003
-0.16603175 -0.06911613 0.36600003
-0.16506802 -0.06911613 0.36600003
-0.16410427 -0.06911613 0.36600003
-0.16314054 -0.06911613 0.36600003
-0.1621768 -0.06911613 0.36600003
-0.16121306 -0.06911613 0.36600003
-0.16024932 -0.06911613 0.36600003
-0.15928558 -0.06911613 0.36600003
-0.15832184 -0.06911613 0.36600003
-0.15735811 -0.06911613 0.36600003
-0.15639436 -0.06911613 0.36600003
-0.15543063 -0.06911613 0.36600003
-0.15446688 -0.06911613 0.36600003
-0.15350315 -0.06911613 0.36600003
-0.15253942 -0.06911613 0.36600003
-0.15157567 -0.06911613 0.36600003
-0.15061194 -0.06911613 0.36600003
-0.14964819 -0.06911613 0.36600003
-0.14868446 -0.06911613 0.36600003
-0.14772072 -0.06911613 0.36600003
-0.14675698 -0.06911613 0.36600003
-0.14579324 -0.06911613 0.36600003
-0.1448295 -0.06911613 0.36600003
-0.14347269 -0.068927288 0.36500001
-0.14251156 -0.068927288 0.36500001
-0.14155047 -0.068927288 0.36500001
-0.14058937 -0.068927288 0.36500001
-0.13962825 -0.068927288 0.36500001
-0.13866715 -0.068927288 0.36500001
-0.13770604 -0.068927288 0.36500001
-0.13711959 -0.06911613 0.36600003
-0.13615586 -0.06911613 0.36600003
-0.13519211 -0.06911613 0.36600003
-0.13422838 -0.06911613 0.36600003
-0.13326463 -0.06911613 0.36600003
-0.1323009 -0.06911613 0.36600003
-0.13133715 -0.06911613 0.36600003
-0.13037342 -0.06911613 0.36600003
-0.12940967 -0.06911613 0.36600003
-0.12844594 -0.06911613 0.36600003
-0.12748219 -0.06911613 0.36600003
-0.12651846 -0.06911613 0.36600003
-0.12555471 -0.06911613 0.36600003
-0.12459099 -0.06911613 0.36600003
-0.12362724 -0.06911613 0.36600003
-0.12266351 -0.06911613 0.36600003
-0.12169976 -0.06911613 0.36600003
-0.12073603 -0.06911613 0.36600003
-0.11977229 -0.06911613 0.36600003
-0.11880855 -0.06911613 0.36600003
