# .PCD v0.7 - Point Cloud Data file format
VERSION 0.7
FIELDS x y z
SIZE 4 4 4
TYPE F F F
COUNT 1 1 1
WIDTH 1374
HEIGHT 1
VIEWPOINT 0 0 0 1 0 0 0
POINTS 1374
DATA ascii
-0.1601281 -0.051890481 0.33000001
-0.15925916 -0.051890481 0.33000001
-0.15839021 -0.051890481 0.33000001
-0.15752126 -0.051890481 0.33000001
-0.15617763 -0.05173324 0.32900003
-0.15531132 -0.05173324 0.32900003
-0.15444501 -0.05173324 0.32900003
-0.15357868 -0.05173324 0.32900003
-0.15271237 -0.05173324 0.32900003
-0.15138452 -0.051575992 0.32800001
-0.15052083 -0.051575992 0.32800001
-0.14965716 -0.051575992 0.32800001
-0.14879347 -0.051575992 0.32800001
-0.1479298 -0.051575992 0.32800001
-0.14706612 -0.051575992 0.32800001
-0.14620245 -0.051575992 0.32800001
-0.14533877 -0.051575992 0.32800001
-0.14447509 -0.051575992 0.32800001
-0.14361142 -0.051575992 0.32800001
-0.14318295 -0.05173324 0.32900003
-0.14231664 -0.05173324 0.32900003
-0.14145033 -0.05173324 0.32900003
-0.14058401 -0.05173324 0.32900003
-0.1397177 -0.05173324 0.32900003
-0.13927342 -0.051890481 0.33000001
-0.13840447 -0.051890481 0.33000001
-0.13753554 -0.051890481 0.33000001
-0.13666658 -0.051890481 0.33000001
-0.13579765 -0.051890481 0.33000001
-0.13533758 -0.052047729 0.33100003
-0.13446601 -0.052047729 0.33100003
-0.13399804 -0.05220497 0.33200002
-0.13312382 -0.05220497 0.33200002
-0.13264795 -0.052362211 0.333
-0.13177109 -0.052362211 0.333
-0.13089424 -0.052362211 0.333
-0.13040785 -0.052519459 0.33400002
-0.12991618 -0.0526767 0.33500001
-0.12903407 -0.0526767 0.33500001
-0.12815195 -0.0526767 0.33500001
-0.12764977 -0.052833948 0.33600003
-0.12676501 -0.052833948 0.33600003
-0.12588027 -0.052833948 0.33600003
-0.12536754 -0.052991189 0.33700001
-0.12484954 -0.053148434 0.33800003
-0.12395953 -0.053148434 0.33800003
-0.12343363 -0.053305678 0.33900002
-0.12290246 -0.053462919 0.34
-0.12200719 -0.053462919 0.34
-0.12146813 -0.053620167 0.34100002
-0.12057022 -0.053620167 0.34100002
-0.12002324 -0.053777408 0.34200001
-0.11912271 -0.053777408 0.34200001
-0.11822215 -0.053777408 0.34200001
-0.11766466 -0.053934652 0.34300002
-0.1167615 -0.053934652 0.34300002
-0.11585832 -0.053934652 0.34300002
-0.11495514 -0.053934652 0.34300002
-0.11405196 -0.053934652 0.34300002
-0.11314879 -0.053934652 0.34300002
-0.11257286 -0.054091897 0.34400001
-0.11166704 -0.054091897 0.34400001
-0.11076123 -0.054091897 0.34400001
-0.11017478 -0.054249141 0.34500003
-0.10926633 -0.054249141 0.34500003
-0.10867197 -0.054406386 0.34600002
-0.10776089 -0.054406386 0.34600002
-0.10715863 -0.054563627 0.347
-0.10624491 -0.054563627 0.347
-0.10533121 -0.054563627 0.347
-0.10471842 -0.054720871 0.34800002
-0.10380208 -0.054720871 0.34800002
-0.10288574 -0.054720871 0.34800002
-0.10196939 -0.054720871 0.34800002
-0.10134343 -0.054878116 0.34900001
-0.10042445 -0.054878116 0.34900001
-0.099505484 -0.054878116 0.34900001
-0.098586507 -0.054878116 0.34900001
-0.097947381 -0.05503536 0.35000002
-0.097025782 -0.05503536 0.35000002
-0.096104167 -0.05503536 0.35000002
-0.095454507 -0.055192601 0.35100001
-0.09453027 -0.055192601 0.35100001
-0.093872711 -0.055349849 0.35200003
-0.092945844 -0.055349849 0.35200003
-0.092018962 -0.055349849 0.35200003
-0.091092087 -0.055349849 0.35200003
-0.090421356 -0.05550709 0.35300002
-0.089491852 -0.05550709 0.35300002
-0.088562347 -0.05550709 0.35300002
-0.087632835 -0.05550709 0.35300002
-0.08670333 -0.05550709 0.35300002
-0.085773826 -0.05550709 0.35300002
-0.085084662 -0.055664334 0.354
-0.08415252 -0.055664334 0.354
-0.083220378 -0.055664334 0.354
-0.082288243 -0.055664334 0.354
-0.081356101 -0.055664334 0.354
-0.080423959 -0.055664334 0.354
-0.079491816 -0.055664334 0.354
-0.078559674 -0.055664334 0.354
-0.077627532 -0.055664334 0.354
-0.076695397 -0.055664334 0.354
-0.075977281 -0.055821579 0.35500002
-0.075042501 -0.055821579 0.35500002
-0.073898971 -0.055664334 0.354
-0.072966829 -0.055664334 0.354
-0.072034687 -0.055664334 0.354
-0.071102552 -0.055664334 0.354
-0.07017041 -0.055664334 0.354
-0.069238268 -0.055664334 0.354
-0.068306126 -0.055664334 0.354
-0.067373984 -0.055664334 0.354
-0.066441849 -0.055664334 0.354
-0.065509707 -0.055664334 0.354
-0.064577565 -0.055664334 0.354
-0.063645422 -0.055664334 0.354
-0.06271328 -0.055664334 0.354
-0.061781134 -0.055664334 0.354
-0.061020892 -0.055821579 0.35500002
-0.060086116 -0.055821579 0.35500002
-0.05915134 -0.055821579 0.35500002
-0.058216568 -0.055821579 0.35500002
-0.057281792 -0.055821579 0.35500002
-0.05634702 -0.055821579 0.35500002
-0.055568334 -0.05597882 0.35600001
-0.054630928 -0.05597882 0.35600001
-0.053844344 -0.056136068 0.35700002
-0.053052492 -0.056293309 0.35800001
-0.052109819 -0.056293309 0.35800001
-0.051453002 -0.056607798 0.36000001
-0.050505061 -0.056607798 0.36000001
-0.04969478 -0.056765046 0.36100003
-0.048879229 -0.056922287 0.36200002
-0.048058413 -0.057079528 0.36300001
-0.047232334 -0.057236776 0.36400002
-0.04640099 -0.057394017 0.36500001
-0.04543988 -0.057394017 0.36500001
-0.044600636 -0.057551265 0.36600003
-0.043636896 -0.057551265 0.36600003
-0.04278975 -0.057708506 0.36700001
-0.04182338 -0.057708506 0.36700001
-0.001356073 -0.035537116 0.22600001
-0.00075760996 -0.035379875 0.22500001
-0.00016514747 -0.035379875 0.22500001
0.00042731504 -0.035379875 0.22500001
0.0010152452 -0.035222631 0.22400001
0.0016050745 -0.035222631 0.22400001
0.0021851051 -0.035065386 0.223
0.0027723012 -0.035065386 0.223
0.0033594978 -0.035065386 0.223
0.0039466936 -0.035065386 0.223
0.0045135585 -0.034908142 0.22200002
0.0050981217 -0.034908142 0.22200002
0.0056826849 -0.034908142 0.22200002
0.006239017 -0.034750901 0.22100002
0.0068209469 -0.034750901 0.22100002
0.0074028769 -0.034750901 0.22100002
0.0079848059 -0.034750901 0.22100002
0.0085667372 -0.034750901 0.22100002
0.0091072693 -0.034593657 0.22000001
0.009686566 -0.034593657 0.22000001
0.010265864 -0.034593657 0.22000001
0.01084516 -0.034593657 0.22000001
0.011424457 -0.034593657 0.22000001
0.012003752 -0.034593657 0.22000001
0.01258305 -0.034593657 0.22000001
0.013162347 -0.034593657 0.22000001
0.013741643 -0.034593657 0.22000001
0.01432094 -0.034593657 0.22000001
0.014900235 -0.034593657 0.22000001
0.015479533 -0.034593657 0.22000001
0.016058831 -0.034593657 0.22000001
0.016638126 -0.034593657 0.22000001
0.017217424 -0.034593657 0.22000001
0.017796721 -0.034593657 0.22000001
0.018376017 -0.034593657 0.22000001
0.018955313 -0.034593657 0.22000001
0.01953461 -0.034593657 0.22000001
0.020113906 -0.034593657 0.22000001
0.020693203 -0.034593657 0.22000001
0.021272501 -0.034593657 0.22000001
0.021851797 -0.034593657 0.22000001
0.022431094 -0.034593657 0.22000001
0.023010392 -0.034593657 0.22000001
0.023589687 -0.034593657 0.22000001
0.024168985 -0.034593657 0.22000001
0.024748281 -0.034593657 0.22000001
0.025442703 -0.034750901 0.22100002
0.026024634 -0.034750901 0.22100002
0.026606562 -0.034750901 0.22100002
0.027188493 -0.034750901 0.22100002
0.02789608 -0.034908142 0.22200002
0.028480643 -0.034908142 0.22200002
0.029065207 -0.034908142 0.22200002
0.02964977 -0.034908142 0.22200002
0.030234333 -0.034908142 0.22200002
0.030957716 -0.035065386 0.223
0.031544913 -0.035065386 0.223
0.032132111 -0.035065386 0.223
0.032866031 -0.035222631 0.22400001
0.03345586 -0.035222631 0.22400001
0.034045689 -0.035222631 0.22400001
0.03479014 -0.035379875 0.22500001
0.035382602 -0.035379875 0.22500001
0.035975065 -0.035379875 0.22500001
0.036730051 -0.035537116 0.22600001
0.037325148 -0.035537116 0.22600001
0.038088031 -0.035694361 0.22700001
0.038685761 -0.035694361 0.22700001
0.039283488 -0.035694361 0.22700001
0.040056907 -0.035851605 0.22800002
0.040657271 -0.035851605 0.22800002
0.041438587 -0.03600885 0.22900002
0.042041581 -0.03600885 0.22900002
0.042644575 -0.03600885 0.22900002
0.043436423 -0.036166094 0.23
0.044042051 -0.036166094 0.23
0.0448418 -0.036323335 0.23100001
0.045450065 -0.036323335 0.23100001
0.046257708 -0.03648058 0.23200001
0.047070626 -0.036637824 0.23300001
0.047684152 -0.036637824 0.23300001
0.048504967 -0.036795069 0.23400001
0.04912113 -0.036795069 0.23400001
0.04994984 -0.036952313 0.23500001
0.05078382 -0.037109558 0.23600002
0.051405251 -0.037109558 0.23600002
0.052247129 -0.037266802 0.23700002
0.05287119 -0.037266802 0.23700002
0.05372097 -0.037424043 0.23800001
0.05457601 -0.037581287 0.23900001
0.055205338 -0.037581287 0.23900001
0.056068283 -0.037738532 0.24000001
0.056936495 -0.037895776 0.24100001
0.057571091 -0.037895776 0.24100001
0.058447201 -0.038053021 0.24200001
0.059328575 -0.038210265 0.24300002
0.06021522 -0.03836751 0.24400002
0.060857713 -0.03836751 0.24400002
0.061752256 -0.038524751 0.245
0.062652059 -0.038681995 0.24600001
0.063299827 -0.038681995 0.24600001
0.064207532 -0.03883924 0.24700001
0.065120511 -0.038996484 0.24800001
0.065773532 -0.038996484 0.24800001
0.066694401 -0.039153729 0.24900001
0.067620546 -0.039310969 0.25
0.068278834 -0.039310969 0.25
0.069212884 -0.039468218 0.25100002
0.070152186 -0.039625458 0.252
0.071096756 -0.039782703 0.25300002
0.073287986 -0.040254436 0.25600001
0.074250989 -0.040411677 0.257
0.075219259 -0.040568922 0.25800002
0.076192789 -0.040726166 0.259
0.077171609 -0.040883411 0.26000002
0.077856228 -0.040883411 0.26000002
0.07884293 -0.041040652 0.26100001
0.094681635 -0.046072457 0.29300001
0.095453151 -0.046072457 0.29300001
0.096224673 -0.046072457 0.29300001
0.096996188 -0.046072457 0.29300001
0.097767711 -0.046072457 0.29300001
0.098539226 -0.046072457 0.29300001
0.099649683 -0.046229701 0.294
0.10042384 -0.046229701 0.294
0.10119799 -0.046229701 0.294
0.10197214 -0.046229701 0.294
0.10274629 -0.046229701 0.294
0.10352045 -0.046229701 0.294
0.10429459 -0.046229701 0.294
0.10506874 -0.046229701 0.294
0.40243044 -0.1594453 1.0140001
0.40510046 -0.1594453 1.0140001
0.40736833 -0.15928805 1.013
0.40922621 -0.15897356 1.011
0.41188833 -0.15897356 1.011
0.41455048 -0.15897356 1.011
0.41638726 -0.15865909 1.0090001
0.41862878 -0.15850183 1.008
0.42128304 -0.15850183 1.008
0.42309612 -0.15818734 1.006
0.4257451 -0.15818734 1.006
0.42839405 -0.15818734 1.006
0.431043 -0.15818734 1.006
0.43455419 -0.15850183 1.008
0.43764219 -0.15865909 1.0090001
0.44029906 -0.15865909 1.0090001
0.44383392 -0.15897356 1.011
0.44737932 -0.15928805 1.013
0.45004672 -0.15928805 1.013
0.45271409 -0.15928805 1.013
0.45583108 -0.1594453 1.0140001
0.45940542 -0.15975979 1.016
0.46208072 -0.15975979 1.016
0.46475601 -0.15975979 1.016
0.46743131 -0.15975979 1.016
0.4701066 -0.15975979 1.016
0.47371256 -0.16007426 1.018
0.47639313 -0.16007426 1.018
0.4790737 -0.16007426 1.018
0.48080778 -0.15975979 1.016
0.48348311 -0.15975979 1.016
0.48520139 -0.1594453 1.0140001
0.48787144 -0.1594453 1.0140001
0.49005768 -0.15928805 1.013
0.49272507 -0.15928805 1.013
0.49539247 -0.15928805 1.013
0.49805987 -0.15928805 1.013
0.49973869 -0.15897356 1.011
0.50240082 -0.15897356 1.011
0.50356424 -0.15850183 1.008
-0.19199017 -0.051176149 0.33100003
-0.19111858 -0.051176149 0.33100003
-0.190247 -0.051176149 0.33100003
-0.18937543 -0.051176149 0.33100003
-0.18850386 -0.051176149 0.33100003
-0.18763228 -0.051176149 0.33100003
-0.18676069 -0.051176149 0.33100003
-0.18588911 -0.051176149 0.33100003
-0.18501754 -0.051176149 0.33100003
-0.18414597 -0.051176149 0.33100003
-0.18327437 -0.051176149 0.33100003
-0.1824028 -0.051176149 0.33100003
-0.18098278 -0.051021535 0.33000001
-0.18011384 -0.051021535 0.33000001
-0.17924491 -0.051021535 0.33000001
-0.17837594 -0.051021535 0.33000001
-0.177507 -0.051021535 0.33000001
-0.17663805 -0.051021535 0.33000001
-0.17576912 -0.051021535 0.33000001
-0.17490017 -0.051021535 0.33000001
-0.17403121 -0.051021535 0.33000001
-0.17316227 -0.051021535 0.33000001
-0.17229334 -0.051021535 0.33000001
-0.17142439 -0.051021535 0.33000001
-0.17055544 -0.051021535 0.33000001
-0.1696865 -0.051021535 0.33000001
-0.16830599 -0.050866928 0.32900003
-0.16743968 -0.050866928 0.32900003
-0.16657338 -0.050866928 0.32900003
-0.16570707 -0.050866928 0.32900003
-0.16484074 -0.050866928 0.32900003
-0.16397443 -0.050866928 0.32900003
-0.16310813 -0.050866928 0.32900003
-0.1622418 -0.050866928 0.32900003
-0.16186599 -0.051021535 0.33000001
-0.16099705 -0.051021535 0.33000001
-0.1601281 -0.051021535 0.33000001
-0.15877657 -0.050866928 0.32900003
-0.15791024 -0.050866928 0.32900003
-0.15704393 -0.050866928 0.32900003
-0.15617763 -0.050866928 0.32900003
-0.15531132 -0.050866928 0.32900003
-0.15444501 -0.050866928 0.32900003
-0.15357868 -0.050866928 0.32900003
-0.1522482 -0.050712314 0.32800001
-0.15138452 -0.050712314 0.32800001
-0.15052083 -0.050712314 0.32800001
-0.14965716 -0.050712314 0.32800001
-0.14879347 -0.050712314 0.32800001
-0.1479298 -0.050712314 0.32800001
-0.14706612 -0.050712314 0.32800001
-0.14620245 -0.050712314 0.32800001
-0.14533877 -0.050712314 0.32800001
-0.14447509 -0.050712314 0.32800001
-0.14361142 -0.050712314 0.32800001
-0.14274773 -0.050712314 0.32800001
-0.14231664 -0.050866928 0.32900003
-0.14145033 -0.050866928 0.32900003
-0.14058401 -0.050866928 0.32900003
-0.1397177 -0.050866928 0.32900003
-0.13927342 -0.051021535 0.33000001
-0.13840447 -0.051021535 0.33000001
-0.13753554 -0.051021535 0.33000001
-0.13666658 -0.051021535 0.33000001
-0.13579765 -0.051021535 0.33000001
-0.13533758 -0.051176149 0.33100003
-0.13446601 -0.051176149 0.33100003
-0.13399804 -0.051330756 0.33200002
-0.13312382 -0.051330756 0.33200002
-0.13264795 -0.051485367 0.333
-0.13177109 -0.051485367 0.333
-0.13089424 -0.051485367 0.333
-0.13040785 -0.051639982 0.33400002
-0.12991618 -0.051794589 0.33500001
-0.12903407 -0.051794589 0.33500001
-0.12815195 -0.051794589 0.33500001
-0.12764977 -0.051949203 0.33600003
-0.12676501 -0.051949203 0.33600003
-0.12588027 -0.051949203 0.33600003
-0.12536754 -0.05210381 0.33700001
-0.12484954 -0.052258424 0.33800003
-0.12395953 -0.052258424 0.33800003
-0.12343363 -0.052413031 0.33900002
-0.12254099 -0.052413031 0.33900002
-0.12200719 -0.052567642 0.34
-0.12146813 -0.052722253 0.34100002
-0.12092379 -0.052876864 0.34200001
-0.12002324 -0.052876864 0.34200001
-0.11912271 -0.052876864 0.34200001
-0.11856784 -0.053031478 0.34300002
-0.11766466 -0.053031478 0.34300002
-0.1167615 -0.053031478 0.34300002
-0.11585832 -0.053031478 0.34300002
-0.11495514 -0.053031478 0.34300002
-0.11405196 -0.053031478 0.34300002
-0.11314879 -0.053031478 0.34300002
-0.11257286 -0.053186085 0.34400001
-0.11166704 -0.053186085 0.34400001
-0.11076123 -0.053186085 0.34400001
-0.11017478 -0.0533407 0.34500003
-0.10926633 -0.0533407 0.34500003
-0.10867197 -0.053495307 0.34600002
-0.10776089 -0.053495307 0.34600002
-0.10715863 -0.053649917 0.347
-0.10624491 -0.053649917 0.347
-0.10533121 -0.053649917 0.347
-0.10471842 -0.053804528 0.34800002
-0.10380208 -0.053804528 0.34800002
-0.10288574 -0.053804528 0.34800002
-0.10196939 -0.053804528 0.34800002
-0.10134343 -0.053959139 0.34900001
-0.10042445 -0.053959139 0.34900001
-0.099505484 -0.053959139 0.34900001
-0.098586507 -0.053959139 0.34900001
-0.097947381 -0.054113753 0.35000002
-0.097025782 -0.054113753 0.35000002
-0.096104167 -0.054113753 0.35000002
-0.095454507 -0.05426836 0.35100001
-0.09453027 -0.05426836 0.35100001
-0.093872711 -0.054422975 0.35200003
-0.092945844 -0.054422975 0.35200003
-0.092018962 -0.054422975 0.35200003
-0.091092087 -0.054422975 0.35200003
-0.090421356 -0.054577582 0.35300002
-0.089491852 -0.054577582 0.35300002
-0.088562347 -0.054577582 0.35300002
-0.087632835 -0.054577582 0.35300002
-0.08670333 -0.054577582 0.35300002
-0.086016804 -0.054732192 0.354
-0.085084662 -0.054732192 0.354
-0.08415252 -0.054732192 0.354
-0.083220378 -0.054732192 0.354
-0.082288243 -0.054732192 0.354
-0.081356101 -0.054732192 0.354
-0.080651149 -0.054886803 0.35500002
-0.079716377 -0.054886803 0.35500002
-0.078781597 -0.054886803 0.35500002
-0.077846825 -0.054886803 0.35500002
-0.076912053 -0.054886803 0.35500002
-0.075977281 -0.054886803 0.35500002
-0.075042501 -0.054886803 0.35500002
-0.074107729 -0.054886803 0.35500002
-0.073172949 -0.054886803 0.35500002
-0.072238177 -0.054886803 0.35500002
-0.071303405 -0.054886803 0.35500002
-0.070368633 -0.054886803 0.35500002
-0.06943386 -0.054886803 0.35500002
-0.068499081 -0.054886803 0.35500002
-0.067564309 -0.054886803 0.35500002
-0.066629536 -0.054886803 0.35500002
-0.065694764 -0.054886803 0.35500002
-0.064759985 -0.054886803 0.35500002
-0.063825212 -0.054886803 0.35500002
-0.06289044 -0.054886803 0.35500002
-0.061955661 -0.054886803 0.35500002
-0.061020892 -0.054886803 0.35500002
-0.060086116 -0.054886803 0.35500002
-0.05915134 -0.054886803 0.35500002
-0.058216568 -0.054886803 0.35500002
-0.057281792 -0.054886803 0.35500002
-0.056505743 -0.055041414 0.35600001
-0.055568334 -0.055041414 0.35600001
-0.054784387 -0.055196028 0.35700002
-0.053844344 -0.055196028 0.35700002
-0.053052492 -0.055350635 0.35800001
-0.052255381 -0.05550525 0.35900003
-0.051453002 -0.055659857 0.36000001
-0.050645351 -0.055814471 0.36100003
-0.04969478 -0.055814471 0.36100003
-0.048879229 -0.055969078 0.36200002
-0.048058413 -0.056123689 0.36300001
-0.047232334 -0.0562783 0.36400002
-0.04640099 -0.05643291 0.36500001
-0.045564376 -0.056587525 0.36600003
-0.044600636 -0.056587525 0.36600003
-0.043756124 -0.056742132 0.36700001
-0.04278975 -0.056742132 0.36700001
-0.04193734 -0.056896746 0.36800003
-0.040968332 -0.056896746 0.36800003
-0.00076097716 -0.034942023 0.22600001
-0.00016588147 -0.034942023 0.22600001
0.0021949038 -0.034632798 0.22400001
0.0027847332 -0.034632798 0.22400001
0.0033594978 -0.034478188 0.223
0.0039466936 -0.034478188 0.223
0.0045338897 -0.034478188 0.223
0.0051210863 -0.034478188 0.223
0.0056826849 -0.034323581 0.22200002
0.0062672477 -0.034323581 0.22200002
0.006851811 -0.034323581 0.22200002
0.0074363737 -0.034323581 0.22200002
0.0079848059 -0.03416897 0.22100002
0.0085667372 -0.03416897 0.22100002
0.0091486666 -0.03416897 0.22100002
0.0097305961 -0.03416897 0.22100002
0.010312526 -0.03416897 0.22100002
0.010894456 -0.03416897 0.22100002
0.011424457 -0.034014359 0.22000001
0.012058316 -0.03416897 0.22100002
0.01258305 -0.034014359 0.22000001
0.013162347 -0.034014359 0.22000001
0.013741643 -0.034014359 0.22000001
0.01432094 -0.034014359 0.22000001
0.014900235 -0.034014359 0.22000001
0.015479533 -0.034014359 0.22000001
0.016058831 -0.034014359 0.22000001
0.016638126 -0.034014359 0.22000001
0.017217424 -0.034014359 0.22000001
0.017796721 -0.034014359 0.22000001
0.018376017 -0.034014359 0.22000001
0.018955313 -0.034014359 0.22000001
0.01953461 -0.034014359 0.22000001
0.020113906 -0.034014359 0.22000001
0.020693203 -0.034014359 0.22000001
0.021272501 -0.034014359 0.22000001
0.021851797 -0.034014359 0.22000001
0.022431094 -0.034014359 0.22000001
0.023114985 -0.03416897 0.22100002
0.023696912 -0.03416897 0.22100002
0.024278844 -0.03416897 0.22100002
0.024860771 -0.03416897 0.22100002
0.025442703 -0.03416897 0.22100002
0.026024634 -0.03416897 0.22100002
0.026606562 -0.03416897 0.22100002
0.027311517 -0.034323581 0.22200002
0.02789608 -0.034323581 0.22200002
0.028480643 -0.034323581 0.22200002
0.029065207 -0.034323581 0.22200002
0.029783325 -0.034478188 0.223
0.030370522 -0.034478188 0.223
0.030957716 -0.034478188 0.223
0.031544913 -0.034478188 0.223
0.032276202 -0.034632798 0.22400001
0.032866031 -0.034632798 0.22400001
0.03345586 -0.034632798 0.22400001
0.034197681 -0.034787409 0.22500001
0.03479014 -0.034787409 0.22500001
0.035382602 -0.034787409 0.22500001
0.036134955 -0.034942023 0.22600001
0.036730051 -0.034942023 0.22600001
0.037325148 -0.034942023 0.22600001
0.038088031 -0.035096634 0.22700001
0.038685761 -0.035096634 0.22700001
0.039456543 -0.035251245 0.22800002
0.040056907 -0.035251245 0.22800002
0.040657271 -0.035251245 0.22800002
0.041438587 -0.035405856 0.22900002
0.042041581 -0.035405856 0.22900002
0.042830795 -0.035560463 0.23
0.043436423 -0.035560463 0.23
0.044233538 -0.035715073 0.23100001
0.0448418 -0.035715073 0.23100001
0.045646816 -0.035869684 0.23200001
0.046257708 -0.035869684 0.23200001
0.047070626 -0.036024295 0.23300001
0.047888808 -0.036178909 0.23400001
0.048504967 -0.036178909 0.23400001
0.04933105 -0.03633352 0.23500001
0.04994984 -0.03633352 0.23500001
0.05078382 -0.036488131 0.23600002
0.051623069 -0.036642741 0.23700002
0.052247129 -0.036642741 0.23700002
0.053094275 -0.036797348 0.23800001
0.05372097 -0.036797348 0.23800001
0.05457601 -0.036951959 0.23900001
0.055436324 -0.03710657 0.24000001
0.056068283 -0.03710657 0.24000001
0.056936495 -0.037261184 0.24100001
0.057809975 -0.037415795 0.24200001
0.058688719 -0.037570406 0.24300002
0.059328575 -0.037570406 0.24300002
0.06021522 -0.037725016 0.24400002
0.061107129 -0.037879623 0.245
0.062004305 -0.038034234 0.24600001
0.062652059 -0.038034234 0.24600001
0.063557141 -0.038188845 0.24700001
0.064207532 -0.038188845 0.24700001
0.065120511 -0.038343456 0.24800001
0.06603875 -0.03849807 0.24900001
0.066694401 -0.03849807 0.24900001
0.067620546 -0.038652677 0.25
0.068551958 -0.038807292 0.25100002
0.06948863 -0.038961899 0.252
0.070430569 -0.039116513 0.25300002
0.071377769 -0.03927112 0.25400001
0.072330251 -0.039425734 0.25500003
0.073287986 -0.039580341 0.25600001
0.074250989 -0.039734952 0.257
0.075219259 -0.039889567 0.25800002
0.076192789 -0.040044174 0.259
0.076874785 -0.040044174 0.259
0.077856228 -0.040198788 0.26000002
0.07884293 -0.040353395 0.26100001
0.093589619 -0.045146331 0.29200003
0.094681635 -0.045300938 0.29300001
0.095453151 -0.045300938 0.29300001
0.096224673 -0.045300938 0.29300001
0.096996188 -0.045300938 0.29300001
0.097767711 -0.045300938 0.29300001
0.098539226 -0.045300938 0.29300001
0.099310741 -0.045300938 0.29300001
0.10008226 -0.045300938 0.29300001
0.10085378 -0.045300938 0.29300001
0.10197214 -0.045455549 0.294
0.10274629 -0.045455549 0.294
0.10352045 -0.045455549 0.294
0.10429459 -0.045455549 0.294
0.10506874 -0.045455549 0.294
0.40243044 -0.15677527 1.0140001
0.40510046 -0.15677527 1.0140001
0.40777048 -0.15677527 1.0140001
0.41003576 -0.15662065 1.013
0.41270313 -0.15662065 1.013
0.41455048 -0.15631144 1.011
0.41721261 -0.15631144 1.011
0.41904411 -0.15600221 1.0090001
0.42170098 -0.15600221 1.0090001
0.42435786 -0.15600221 1.0090001
0.42701474 -0.15600221 1.0090001
0.42967159 -0.15600221 1.0090001
0.43232843 -0.15600221 1.0090001
0.43498531 -0.15600221 1.0090001
0.43764219 -0.15600221 1.0090001
0.4411718 -0.15631144 1.011
0.44383392 -0.15631144 1.011
0.44737932 -0.15662065 1.013
0.45004672 -0.15662065 1.013
0.45271409 -0.15662065 1.013
0.45538151 -0.15662065 1.013
0.4585011 -0.15677527 1.0140001
0.46117112 -0.15677527 1.0140001
0.46384114 -0.15677527 1.0140001
0.46651116 -0.15677527 1.0140001
0.46918121 -0.15677527 1.0140001
0.47185123 -0.15677527 1.0140001
0.47452128 -0.15677527 1.0140001
0.4771913 -0.15677527 1.0140001
0.47986132 -0.15677527 1.0140001
0.48253137 -0.15677527 1.0140001
0.48520139 -0.15677527 1.0140001
0.48739028 -0.15662065 1.013
0.49005768 -0.15662065 1.013
0.49272507 -0.15662065 1.013
0.49539247 -0.15662065 1.013
0.49805987 -0.15662065 1.013
0.49973869 -0.15631144 1.011
0.50240082 -0.15631144 1.011
0.50406384 -0.15600221 1.0090001
-0.19199017 -0.050304569 0.33100003
-0.19111858 -0.050304569 0.33100003
-0.190247 -0.050304569 0.33100003
-0.18937543 -0.050304569 0.33100003
-0.18850386 -0.050304569 0.33100003
-0.18763228 -0.050304569 0.33100003
-0.18676069 -0.050304569 0.33100003
-0.18588911 -0.050304569 0.33100003
-0.18501754 -0.050304569 0.33100003
-0.18358962 -0.050152589 0.33000001
-0.18272066 -0.050152589 0.33000001
-0.18185171 -0.050152589 0.33000001
-0.18098278 -0.050152589 0.33000001
-0.18011384 -0.050152589 0.33000001
-0.17924491 -0.050152589 0.33000001
-0.17837594 -0.050152589 0.33000001
-0.177507 -0.050152589 0.33000001
-0.17663805 -0.050152589 0.33000001
-0.17576912 -0.050152589 0.33000001
-0.17490017 -0.050152589 0.33000001
-0.17403121 -0.050152589 0.33000001
-0.17316227 -0.050152589 0.33000001
-0.17229334 -0.050152589 0.33000001
-0.17090493 -0.050000615 0.32900003
-0.17003863 -0.050000615 0.32900003
-0.1691723 -0.050000615 0.32900003
-0.16830599 -0.050000615 0.32900003
-0.16743968 -0.050000615 0.32900003
-0.16657338 -0.050000615 0.32900003
-0.16570707 -0.050000615 0.32900003
-0.16484074 -0.050000615 0.32900003
-0.16397443 -0.050000615 0.32900003
-0.16310813 -0.050000615 0.32900003
-0.1622418 -0.050000615 0.32900003
-0.16137549 -0.050000615 0.32900003
-0.16050918 -0.050000615 0.32900003
-0.15964288 -0.050000615 0.32900003
-0.15877657 -0.050000615 0.32900003
-0.15791024 -0.050000615 0.32900003
-0.15704393 -0.050000615 0.32900003
-0.15617763 -0.050000615 0.32900003
-0.15531132 -0.050000615 0.32900003
-0.15444501 -0.050000615 0.32900003
-0.15357868 -0.050000615 0.32900003
-0.1522482 -0.049848635 0.32800001
-0.15138452 -0.049848635 0.32800001
-0.15052083 -0.049848635 0.32800001
-0.14965716 -0.049848635 0.32800001
-0.14879347 -0.049848635 0.32800001
-0.1479298 -0.049848635 0.32800001
-0.14706612 -0.049848635 0.32800001
-0.14620245 -0.049848635 0.32800001
-0.14533877 -0.049848635 0.32800001
-0.14447509 -0.049848635 0.32800001
-0.14361142 -0.049848635 0.32800001
-0.14274773 -0.049848635 0.32800001
-0.14231664 -0.050000615 0.32900003
-0.14145033 -0.050000615 0.32900003
-0.14058401 -0.050000615 0.32900003
-0.1397177 -0.050000615 0.32900003
-0.13885139 -0.050000615 0.32900003
-0.13840447 -0.050152589 0.33000001
-0.13753554 -0.050152589 0.33000001
-0.13666658 -0.050152589 0.33000001
-0.13579765 -0.050152589 0.33000001
-0.13533758 -0.050304569 0.33100003
-0.13446601 -0.050304569 0.33100003
-0.13359442 -0.050304569 0.33100003
-0.13312382 -0.050456546 0.33200002
-0.13224961 -0.050456546 0.33200002
-0.13177109 -0.050608519 0.333
-0.13089424 -0.050608519 0.333
-0.13040785 -0.0507605 0.33400002
-0.12952837 -0.0507605 0.33400002
-0.12903407 -0.050912477 0.33500001
-0.12815195 -0.050912477 0.33500001
-0.12764977 -0.051064458 0.33600003
-0.12676501 -0.051064458 0.33600003
-0.12588027 -0.051064458 0.33600003
-0.12536754 -0.051216431 0.33700001
-0.12484954 -0.051368412 0.33800003
-0.12395953 -0.051368412 0.33800003
-0.12343363 -0.051520389 0.33900002
-0.12254099 -0.051520389 0.33900002
-0.12200719 -0.051672366 0.34
-0.12146813 -0.051824342 0.34100002
-0.12057022 -0.051824342 0.34100002
-0.12002324 -0.051976319 0.34200001
-0.11912271 -0.051976319 0.34200001
-0.11822215 -0.051976319 0.34200001
-0.11766466 -0.0521283 0.34300002
-0.1167615 -0.0521283 0.34300002
-0.11585832 -0.0521283 0.34300002
-0.11495514 -0.0521283 0.34300002
-0.11405196 -0.0521283 0.34300002
-0.11314879 -0.0521283 0.34300002
-0.11257286 -0.052280277 0.34400001
-0.11166704 -0.052280277 0.34400001
-0.11108322 -0.052432254 0.34500003
-0.11017478 -0.052432254 0.34500003
-0.10926633 -0.052432254 0.34500003
-0.10867197 -0.052584231 0.34600002
-0.10776089 -0.052584231 0.34600002
-0.10715863 -0.052736208 0.347
-0.10624491 -0.052736208 0.347
-0.10533121 -0.052736208 0.347
-0.10471842 -0.052888185 0.34800002
-0.10380208 -0.052888185 0.34800002
-0.10288574 -0.052888185 0.34800002
-0.10196939 -0.052888185 0.34800002
-0.10134343 -0.053040162 0.34900001
-0.10042445 -0.053040162 0.34900001
-0.099505484 -0.053040162 0.34900001
-0.098586507 -0.053040162 0.34900001
-0.097947381 -0.053192142 0.35000002
-0.097025782 -0.053192142 0.35000002
-0.096104167 -0.053192142 0.35000002
-0.095454507 -0.053344119 0.35100001
-0.09453027 -0.053344119 0.35100001
-0.093606025 -0.053344119 0.35100001
-0.092945844 -0.053496096 0.35200003
-0.092018962 -0.053496096 0.35200003
-0.091350868 -0.053648073 0.35300002
-0.090421356 -0.053648073 0.35300002
-0.089491852 -0.053648073 0.35300002
-0.088562347 -0.053648073 0.35300002
-0.087632835 -0.053648073 0.35300002
-0.08670333 -0.053648073 0.35300002
-0.086016804 -0.05380005 0.354
-0.085084662 -0.05380005 0.354
-0.08415252 -0.05380005 0.354
-0.083220378 -0.05380005 0.354
-0.082288243 -0.05380005 0.354
-0.081585921 -0.053952031 0.35500002
-0.080651149 -0.053952031 0.35500002
-0.079716377 -0.053952031 0.35500002
-0.078781597 -0.053952031 0.35500002
-0.077846825 -0.053952031 0.35500002
-0.076912053 -0.053952031 0.35500002
-0.075977281 -0.053952031 0.35500002
-0.075042501 -0.053952031 0.35500002
-0.074107729 -0.053952031 0.35500002
-0.073172949 -0.053952031 0.35500002
-0.072238177 -0.053952031 0.35500002
-0.071303405 -0.053952031 0.35500002
-0.070368633 -0.053952031 0.35500002
-0.06943386 -0.053952031 0.35500002
-0.068499081 -0.053952031 0.35500002
-0.067564309 -0.053952031 0.35500002
-0.066629536 -0.053952031 0.35500002
-0.065694764 -0.053952031 0.35500002
-0.064759985 -0.053952031 0.35500002
-0.063825212 -0.053952031 0.35500002
-0.06289044 -0.053952031 0.35500002
-0.061955661 -0.053952031 0.35500002
-0.061020892 -0.053952031 0.35500002
-0.060086116 -0.053952031 0.35500002
-0.05915134 -0.053952031 0.35500002
-0.058216568 -0.053952031 0.35500002
-0.057443146 -0.054104004 0.35600001
-0.056505743 -0.054104004 0.35600001
-0.055568334 -0.054104004 0.35600001
-0.054784387 -0.054255985 0.35700002
-0.053844344 -0.054255985 0.35700002
-0.053052492 -0.054407962 0.35800001
-0.052255381 -0.054559942 0.35900003
-0.051310077 -0.054559942 0.35900003
-0.050505061 -0.054711916 0.36000001
-0.04969478 -0.054863896 0.36100003
-0.049014252 -0.055167846 0.36300001
-0.048058413 -0.055167846 0.36300001
-0.047362089 -0.055471804 0.36500001
-0.04640099 -0.055471804 0.36500001
-0.045564376 -0.055623785 0.36600003
-0.044722494 -0.055775758 0.36700001
-0.043875352 -0.055927739 0.36800003
-0.042906348 -0.055927739 0.36800003
-0.04193734 -0.055927739 0.36800003
-0.040968332 -0.055927739 0.36800003
-0.0007643443 -0.034498904 0.22700001
-0.00016588147 -0.034346927 0.22600001
0.00042921424 -0.034346927 0.22600001
0.0010243099 -0.034346927 0.22600001
0.0016122401 -0.034194946 0.22500001
0.0022047025 -0.034194946 0.22500001
0.002797165 -0.034194946 0.22500001
0.0033745626 -0.034042969 0.22400001
0.003964392 -0.034042969 0.22400001
0.0045542209 -0.034042969 0.22400001
0.0051210863 -0.033890992 0.223
0.0057082823 -0.033890992 0.223
0.0062954784 -0.033890992 0.223
0.006851811 -0.033739015 0.22200002
0.0074363737 -0.033739015 0.22200002
0.0080209365 -0.033739015 0.22200002
0.0086055007 -0.033739015 0.22200002
0.009190063 -0.033739015 0.22200002
0.0097305961 -0.033587039 0.22100002
0.010312526 -0.033587039 0.22100002
0.010894456 -0.033587039 0.22100002
0.011476385 -0.033587039 0.22100002
0.012058316 -0.033587039 0.22100002
0.012640246 -0.033587039 0.22100002
0.013222176 -0.033587039 0.22100002
0.013804105 -0.033587039 0.22100002
0.014386036 -0.033587039 0.22100002
0.014967964 -0.033587039 0.22100002
0.015549894 -0.033587039 0.22100002
0.016131826 -0.033587039 0.22100002
0.016713753 -0.033587039 0.22100002
0.017295685 -0.033587039 0.22100002
0.017877614 -0.033587039 0.22100002
0.018459544 -0.033587039 0.22100002
0.019041475 -0.033587039 0.22100002
0.019623404 -0.033587039 0.22100002
0.020205334 -0.033587039 0.22100002
0.020787263 -0.033587039 0.22100002
0.021369195 -0.033587039 0.22100002
0.021951124 -0.033587039 0.22100002
0.022533054 -0.033587039 0.22100002
0.023114985 -0.033587039 0.22100002
0.023696912 -0.033587039 0.22100002
0.024278844 -0.033587039 0.22100002
0.024973264 -0.033739015 0.22200002
0.025557829 -0.033739015 0.22200002
0.026142392 -0.033739015 0.22200002
0.026726954 -0.033739015 0.22200002
0.027311517 -0.033739015 0.22200002
0.02789608 -0.033739015 0.22200002
0.028480643 -0.033739015 0.22200002
0.02919613 -0.033890992 0.223
0.029783325 -0.033890992 0.223
0.030370522 -0.033890992 0.223
0.03109654 -0.034042969 0.22400001
0.031686369 -0.034042969 0.22400001
0.032276202 -0.034042969 0.22400001
0.032866031 -0.034042969 0.22400001
0.033605218 -0.034194946 0.22500001
0.034197681 -0.034194946 0.22500001
0.03479014 -0.034194946 0.22500001
0.035539858 -0.034346927 0.22600001
0.036134955 -0.034346927 0.22600001
0.036730051 -0.034346927 0.22600001
0.037490305 -0.034498904 0.22700001
0.038088031 -0.034498904 0.22700001
0.038856182 -0.034650881 0.22800002
0.039456543 -0.034650881 0.22800002
0.040056907 -0.034650881 0.22800002
0.040835593 -0.034802858 0.22900002
0.041438587 -0.034802858 0.22900002
0.042225163 -0.034954835 0.23
0.042830795 -0.034954835 0.23
0.043625277 -0.035106812 0.23100001
0.044233538 -0.035106812 0.23100001
0.045035921 -0.035258789 0.23200001
0.045646816 -0.035258789 0.23200001
0.046457097 -0.035410769 0.23300001
0.047070626 -0.035410769 0.23300001
0.047888808 -0.035562746 0.23400001
0.048712254 -0.035714723 0.23500001
0.04933105 -0.035714723 0.23500001
0.050162394 -0.0358667 0.23600002
0.05078382 -0.0358667 0.23600002
0.051623069 -0.036018681 0.23700002
0.052467581 -0.036170654 0.23800001
0.053094275 -0.036170654 0.23800001
0.053946689 -0.036322635 0.23900001
0.05457601 -0.036322635 0.23900001
0.055436324 -0.036474612 0.24000001
0.056301903 -0.036626589 0.24100001
0.056936495 -0.036626589 0.24100001
0.057809975 -0.036778565 0.24200001
0.058688719 -0.036930546 0.24300002
0.059572726 -0.037082523 0.24400002
0.060462002 -0.037234496 0.245
0.061107129 -0.037234496 0.245
0.062004305 -0.037386477 0.24600001
0.062906742 -0.037538454 0.24700001
0.063557141 -0.037538454 0.24700001
0.064467482 -0.037690431 0.24800001
0.065120511 -0.037690431 0.24800001
0.06603875 -0.037842408 0.24900001
0.06696225 -0.037994385 0.25
0.067620546 -0.037994385 0.25
0.068551958 -0.038146365 0.25100002
0.06948863 -0.038298339 0.252
0.070430569 -0.038450319 0.25300002
0.071377769 -0.038602296 0.25400001
0.072330251 -0.038754277 0.25500003
0.073287986 -0.03890625 0.25600001
0.074250989 -0.039058227 0.257
0.075219259 -0.039210208 0.25800002
0.076192789 -0.039362185 0.259
0.077171609 -0.039514162 0.26000002
0.078155667 -0.039666139 0.26100001
0.092820726 -0.044377446 0.29200003
0.093589619 -0.044377446 0.29200003
0.094358496 -0.044377446 0.29200003
0.095127381 -0.044377446 0.29200003
0.096224673 -0.044529419 0.29300001
0.096996188 -0.044529419 0.29300001
0.097767711 -0.044529419 0.29300001
0.098539226 -0.044529419 0.29300001
0.099310741 -0.044529419 0.29300001
0.10008226 -0.044529419 0.29300001
0.10085378 -0.044529419 0.29300001
0.1016253 -0.044529419 0.29300001
0.10239682 -0.044529419 0.29300001
0.10316834 -0.044529419 0.29300001
0.10393985 -0.044529419 0.29300001
0.10471137 -0.044529419 0.29300001
0.1058429 -0.044681396 0.294
0.40589947 -0.15440919 1.016
0.40777048 -0.15410523 1.0140001
0.41044053 -0.15410523 1.0140001
0.41270313 -0.15395325 1.013
0.41537055 -0.15395325 1.013
0.41803792 -0.15395325 1.013
0.41987473 -0.1536493 1.011
0.42253685 -0.1536493 1.011
0.42519897 -0.1536493 1.011
0.42786112 -0.1536493 1.011
0.43052325 -0.1536493 1.011
0.43318537 -0.1536493 1.011
0.43584752 -0.1536493 1.011
0.43850964 -0.1536493 1.011
0.4411718 -0.1536493 1.011
0.44383392 -0.1536493 1.011
0.44649607 -0.1536493 1.011
0.44915816 -0.1536493 1.011
0.45182028 -0.1536493 1.011
0.45448244 -0.1536493 1.011
0.45804888 -0.15395325 1.013
0.46071631 -0.15395325 1.013
0.46246883 -0.1536493 1.011
0.46605107 -0.15395325 1.013
0.4687185 -0.15395325 1.013
0.4713859 -0.15395325 1.013
0.47405329 -0.15395325 1.013
0.47672069 -0.15395325 1.013
0.47938806 -0.15395325 1.013
0.48205549 -0.15395325 1.013
0.48472288 -0.15395325 1.013
0.48739028 -0.15395325 1.013
0.49005768 -0.15395325 1.013
0.49272507 -0.15395325 1.013
0.49539247 -0.15395325 1.013
0.49707654 -0.1536493 1.011
0.49973869 -0.1536493 1.011
0.50240082 -0.1536493 1.011
0.50406384 -0.15334535 1.0090001
-0.19199017 -0.049432989 0.33100003
-0.19111858 -0.049432989 0.33100003
-0.190247 -0.049432989 0.33100003
-0.18937543 -0.049432989 0.33100003
-0.18850386 -0.049432989 0.33100003
-0.18763228 -0.049432989 0.33100003
-0.18676069 -0.049432989 0.33100003
-0.18588911 -0.049432989 0.33100003
-0.18445857 -0.049283642 0.33000001
-0.18358962 -0.049283642 0.33000001
-0.18272066 -0.049283642 0.33000001
-0.18185171 -0.049283642 0.33000001
-0.18098278 -0.049283642 0.33000001
-0.18011384 -0.049283642 0.33000001
-0.17924491 -0.049283642 0.33000001
-0.17837594 -0.049283642 0.33000001
-0.177507 -0.049283642 0.33000001
-0.17663805 -0.049283642 0.33000001
-0.17576912 -0.049283642 0.33000001
-0.17437018 -0.049134303 0.32900003
-0.17350385 -0.049134303 0.32900003
-0.17263755 -0.049134303 0.32900003
-0.17177124 -0.049134303 0.32900003
-0.17090493 -0.049134303 0.32900003
-0.17003863 -0.049134303 0.32900003
-0.1691723 -0.049134303 0.32900003
-0.16830599 -0.049134303 0.32900003
-0.16743968 -0.049134303 0.32900003
-0.16657338 -0.049134303 0.32900003
-0.16570707 -0.049134303 0.32900003
-0.16484074 -0.049134303 0.32900003
-0.16397443 -0.049134303 0.32900003
-0.16310813 -0.049134303 0.32900003
-0.1622418 -0.049134303 0.32900003
-0.16137549 -0.049134303 0.32900003
-0.16050918 -0.049134303 0.32900003
-0.15964288 -0.049134303 0.32900003
-0.15877657 -0.049134303 0.32900003
-0.15791024 -0.049134303 0.32900003
-0.15704393 -0.049134303 0.32900003
-0.15617763 -0.049134303 0.32900003
-0.15531132 -0.049134303 0.32900003
-0.15444501 -0.049134303 0.32900003
-0.15311188 -0.048984956 0.32800001
-0.1522482 -0.048984956 0.32800001
-0.15138452 -0.048984956 0.32800001
-0.15052083 -0.048984956 0.32800001
-0.14965716 -0.048984956 0.32800001
-0.14879347 -0.048984956 0.32800001
-0.1479298 -0.048984956 0.32800001
-0.14706612 -0.048984956 0.32800001
-0.14620245 -0.048984956 0.32800001
-0.14533877 -0.048984956 0.32800001
-0.14447509 -0.048984956 0.32800001
-0.14361142 -0.048984956 0.32800001
-0.14274773 -0.048984956 0.32800001
-0.14188406 -0.048984956 0.32800001
-0.14145033 -0.049134303 0.32900003
-0.14058401 -0.049134303 0.32900003
-0.1397177 -0.049134303 0.32900003
-0.13885139 -0.049134303 0.32900003
-0.13798508 -0.049134303 0.32900003
-0.13753554 -0.049283642 0.33000001
-0.13666658 -0.049283642 0.33000001
-0.13579765 -0.049283642 0.33000001
-0.13492869 -0.049283642 0.33000001
-0.13446601 -0.049432989 0.33100003
-0.13359442 -0.049432989 0.33100003
-0.13312382 -0.049582332 0.33200002
-0.13224961 -0.049582332 0.33200002
-0.13177109 -0.049731676 0.333
-0.13089424 -0.049731676 0.333
-0.13040785 -0.049881022 0.33400002
-0.12952837 -0.049881022 0.33400002
-0.12903407 -0.050030366 0.33500001
-0.12815195 -0.050030366 0.33500001
-0.12764977 -0.050179712 0.33600003
-0.12676501 -0.050179712 0.33600003
-0.12588027 -0.050179712 0.33600003
-0.12536754 -0.050329056 0.33700001
-0.12448016 -0.050329056 0.33700001
-0.12395953 -0.050478403 0.33800003
-0.12343363 -0.050627742 0.33900002
-0.12254099 -0.050627742 0.33900002
-0.12200719 -0.050777085 0.34
-0.12146813 -0.050926432 0.34100002
-0.12057022 -0.050926432 0.34100002
-0.12002324 -0.051075775 0.34200001
-0.11912271 -0.051075775 0.34200001
-0.11822215 -0.051075775 0.34200001
-0.11766466 -0.051225122 0.34300002
-0.1167615 -0.051225122 0.34300002
-0.11585832 -0.051225122 0.34300002
-0.11495514 -0.051225122 0.34300002
-0.11405196 -0.051225122 0.34300002
-0.11347866 -0.051374465 0.34400001
-0.11257286 -0.051374465 0.34400001
-0.11166704 -0.051374465 0.34400001
-0.11108322 -0.051523812 0.34500003
-0.11017478 -0.051523812 0.34500003
-0.10958304 -0.051673155 0.34600002
-0.10867197 -0.051673155 0.34600002
-0.10776089 -0.051673155 0.34600002
-0.10715863 -0.051822498 0.347
-0.10624491 -0.051822498 0.347
-0.10533121 -0.051822498 0.347
-0.10471842 -0.051971845 0.34800002
-0.10380208 -0.051971845 0.34800002
-0.10288574 -0.051971845 0.34800002
-0.10196939 -0.051971845 0.34800002
-0.10134343 -0.052121185 0.34900001
-0.10042445 -0.052121185 0.34900001
-0.099505484 -0.052121185 0.34900001
-0.098586507 -0.052121185 0.34900001
-0.097947381 -0.052270532 0.35000002
-0.097025782 -0.052270532 0.35000002
-0.096104167 -0.052270532 0.35000002
-0.095454507 -0.052419875 0.35100001
-0.09453027 -0.052419875 0.35100001
-0.093872711 -0.052569222 0.35200003
-0.092945844 -0.052569222 0.35200003
-0.092018962 -0.052569222 0.35200003
-0.091350868 -0.052718565 0.35300002
-0.090421356 -0.052718565 0.35300002
-0.089491852 -0.052718565 0.35300002
-0.088562347 -0.052718565 0.35300002
-0.087881081 -0.052867908 0.354
-0.086948946 -0.052867908 0.354
-0.086016804 -0.052867908 0.354
-0.085084662 -0.052867908 0.354
-0.08415252 -0.052867908 0.354
-0.083455466 -0.053017255 0.35500002
-0.082520701 -0.053017255 0.35500002
-0.081585921 -0.053017255 0.35500002
-0.080651149 -0.053017255 0.35500002
-0.079716377 -0.053017255 0.35500002
-0.078781597 -0.053017255 0.35500002
-0.077846825 -0.053017255 0.35500002
-0.076912053 -0.053017255 0.35500002
-0.075977281 -0.053017255 0.35500002
-0.075042501 -0.053017255 0.35500002
-0.074107729 -0.053017255 0.35500002
-0.073172949 -0.053017255 0.35500002
-0.072238177 -0.053017255 0.35500002
-0.071303405 -0.053017255 0.35500002
-0.070566848 -0.053166598 0.35600001
-0.069629446 -0.053166598 0.35600001
-0.068499081 -0.053017255 0.35500002
-0.067564309 -0.053017255 0.35500002
-0.066629536 -0.053017255 0.35500002
-0.065694764 -0.053017255 0.35500002
-0.064759985 -0.053017255 0.35500002
-0.063825212 -0.053017255 0.35500002
-0.06289044 -0.053017255 0.35500002
-0.061955661 -0.053017255 0.35500002
-0.061020892 -0.053017255 0.35500002
-0.060086116 -0.053017255 0.35500002
-0.059317961 -0.053166598 0.35600001
-0.058380555 -0.053166598 0.35600001
-0.057443146 -0.053166598 0.35600001
-0.056505743 -0.053166598 0.35600001
-0.055568334 -0.053166598 0.35600001
-0.054784387 -0.053315945 0.35700002
-0.053844344 -0.053315945 0.35700002
-0.053052492 -0.053465284 0.35800001
-0.052109819 -0.053465284 0.35800001
-0.051310077 -0.053614631 0.35900003
-0.050505061 -0.053763974 0.36000001
-0.04969478 -0.053913321 0.36100003
-0.049014252 -0.054212008 0.36300001
-0.048190806 -0.054361355 0.36400002
-0.047362089 -0.054510698 0.36500001
-0.046528116 -0.054660045 0.36600003
-0.045564376 -0.054660045 0.36600003
-0.044722494 -0.054809384 0.36700001
-0.043875352 -0.054958731 0.36800003
-0.042906348 -0.054958731 0.36800003
-0.0420513 -0.055108074 0.36900002
-0.041079659 -0.055108074 0.36900002
0.00043111341 -0.033901174 0.22700001
0.0010243099 -0.03375183 0.22600001
0.0016194056 -0.03375183 0.22600001
0.0022145011 -0.03375183 0.22600001
0.002797165 -0.033602484 0.22500001
0.0033896277 -0.033602484 0.22500001
0.0039820904 -0.033602484 0.22500001
0.0045542209 -0.03345314 0.22400001
0.0051440508 -0.03345314 0.22400001
0.0057082823 -0.033303794 0.223
0.0062954784 -0.033303794 0.223
0.0068826745 -0.033303794 0.223
0.0074698706 -0.033303794 0.223
0.0080570662 -0.033303794 0.223
0.0086055007 -0.033154454 0.22200002
0.009190063 -0.033154454 0.22200002
0.0097746262 -0.033154454 0.22200002
0.010359189 -0.033154454 0.22200002
0.010943753 -0.033154454 0.22200002
0.011528315 -0.033154454 0.22200002
0.012112878 -0.033154454 0.22200002
0.012697442 -0.033154454 0.22200002
0.013282005 -0.033154454 0.22200002
0.013866567 -0.033154454 0.22200002
0.014451131 -0.033154454 0.22200002
0.015035693 -0.033154454 0.22200002
0.015549894 -0.033005107 0.22100002
0.016131826 -0.033005107 0.22100002
0.016713753 -0.033005107 0.22100002
0.017295685 -0.033005107 0.22100002
0.017877614 -0.033005107 0.22100002
0.018459544 -0.033005107 0.22100002
0.019041475 -0.033005107 0.22100002
0.019623404 -0.033005107 0.22100002
0.020205334 -0.033005107 0.22100002
0.020787263 -0.033005107 0.22100002
0.021465888 -0.033154454 0.22200002
0.02205045 -0.033154454 0.22200002
0.022635013 -0.033154454 0.22200002
0.023219576 -0.033154454 0.22200002
0.023804139 -0.033154454 0.22200002
0.024388703 -0.033154454 0.22200002
0.024973264 -0.033154454 0.22200002
0.025557829 -0.033154454 0.22200002
0.026142392 -0.033154454 0.22200002
0.026726954 -0.033154454 0.22200002
0.027311517 -0.033154454 0.22200002
0.028021736 -0.033303794 0.223
0.028608933 -0.033303794 0.223
0.02919613 -0.033303794 0.223
0.029783325 -0.033303794 0.223
0.030506713 -0.03345314 0.22400001
0.03109654 -0.03345314 0.22400001
0.031686369 -0.03345314 0.22400001
0.032420292 -0.033602484 0.22500001
0.033012755 -0.033602484 0.22500001
0.033605218 -0.033602484 0.22500001
0.034197681 -0.033602484 0.22500001
0.034944762 -0.03375183 0.22600001
0.035539858 -0.03375183 0.22600001
0.036134955 -0.03375183 0.22600001
0.036892574 -0.033901174 0.22700001
0.037490305 -0.033901174 0.22700001
0.038088031 -0.033901174 0.22700001
0.038856182 -0.034050517 0.22800002
0.039456543 -0.034050517 0.22800002
0.040232595 -0.034199864 0.22900002
0.040835593 -0.034199864 0.22900002
0.041619539 -0.034349207 0.23
0.042225163 -0.034349207 0.23
0.043017015 -0.03449855 0.23100001
0.043625277 -0.03449855 0.23100001
0.044425026 -0.034647893 0.23200001
0.045035921 -0.034647893 0.23200001
0.045843571 -0.03479724 0.23300001
0.046457097 -0.03479724 0.23300001
0.047272645 -0.034946583 0.23400001
0.047888808 -0.034946583 0.23400001
0.048712254 -0.03509593 0.23500001
0.04954097 -0.035245273 0.23600002
0.050162394 -0.035245273 0.23600002
0.050999008 -0.03539462 0.23700002
0.051623069 -0.03539462 0.23700002
0.052467581 -0.03554396 0.23800001
0.053094275 -0.03554396 0.23800001
0.053946689 -0.035693306 0.23900001
0.054804362 -0.03584265 0.24000001
0.055436324 -0.03584265 0.24000001
0.056301903 -0.035991997 0.24100001
0.057172749 -0.03614134 0.24200001
0.058048859 -0.036290683 0.24300002
0.058688719 -0.036290683 0.24300002
0.059572726 -0.03644003 0.24400002
0.060462002 -0.036589373 0.245
0.061356544 -0.036738716 0.24600001
0.062004305 -0.036738716 0.24600001
0.062906742 -0.036888059 0.24700001
0.063814461 -0.037037406 0.24800001
0.064467482 -0.037037406 0.24800001
0.065383092 -0.037186749 0.24900001
0.06603875 -0.037186749 0.24900001
0.06696225 -0.037336092 0.25
0.067891032 -0.037485439 0.25100002
0.068825066 -0.037634782 0.252
0.069764383 -0.037784129 0.25300002
0.070708945 -0.037933473 0.25400001
0.071377769 -0.037933473 0.25400001
0.072613895 -0.038232159 0.25600001
0.07357426 -0.038381502 0.257
0.074539907 -0.038530849 0.25800002
0.075510807 -0.038680192 0.259
0.076486975 -0.038829539 0.26000002
0.077468418 -0.038978882 0.26100001
0.092820726 -0.043608561 0.29200003
0.093589619 -0.043608561 0.29200003
0.094358496 -0.043608561 0.29200003
0.095127381 -0.043608561 0.29200003
0.095896266 -0.043608561 0.29200003
0.096665151 -0.043608561 0.29200003
0.097767711 -0.043757901 0.29300001
0.098539226 -0.043757901 0.29300001
0.099310741 -0.043757901 0.29300001
0.10008226 -0.043757901 0.29300001
0.10085378 -0.043757901 0.29300001
0.1016253 -0.043757901 0.29300001
0.10239682 -0.043757901 0.29300001
0.10316834 -0.043757901 0.29300001
0.10393985 -0.043757901 0.29300001
0.10471137 -0.043757901 0.29300001
0.10548289 -0.043757901 0.29300001
0.40510046 -0.1514352 1.0140001
0.40777048 -0.1514352 1.0140001
0.41044053 -0.1514352 1.0140001
0.41311055 -0.1514352 1.0140001
0.4157806 -0.1514352 1.0140001
0.41803792 -0.15128584 1.013
0.42070532 -0.15128584 1.013
0.42337275 -0.15128584 1.013
0.42604011 -0.15128584 1.013
0.42870754 -0.15128584 1.013
0.43137491 -0.15128584 1.013
0.43318537 -0.15098716 1.011
0.43584752 -0.15098716 1.011
0.43850964 -0.15098716 1.011
0.4411718 -0.15098716 1.011
0.44383392 -0.15098716 1.011
0.44649607 -0.15098716 1.011
0.44915816 -0.15098716 1.011
0.45182028 -0.15098716 1.011
0.45448244 -0.15098716 1.011
0.45714456 -0.15098716 1.011
0.45889711 -0.15068848 1.0090001
0.46155396 -0.15068848 1.0090001
0.46421084 -0.15068848 1.0090001
0.46779311 -0.15098716 1.011
0.47045523 -0.15098716 1.011
0.47311738 -0.15098716 1.011
0.4757795 -0.15098716 1.011
0.4784416 -0.15098716 1.011
0.48110375 -0.15098716 1.011
0.48376587 -0.15098716 1.011
0.48642802 -0.15098716 1.011
0.48909014 -0.15098716 1.011
0.49272507 -0.15128584 1.013
0.49539247 -0.15128584 1.013
0.49707654 -0.15098716 1.011
0.49973869 -0.15098716 1.011
0.50240082 -0.15098716 1.011
0.50406384 -0.15068848 1.0090001
-0.19199017 -0.048561417 0.33100003
-0.19111858 -0.048561417 0.33100003
-0.190247 -0.048561417 0.33100003
-0.18937543 -0.048561417 0.33100003
-0.18850386 -0.048561417 0.33100003
-0.18763228 -0.048561417 0.33100003
-0.18676069 -0.048561417 0.33100003
-0.1853275 -0.048414703 0.33000001
-0.18445857 -0.048414703 0.33000001
-0.18358962 -0.048414703 0.33000001
-0.18272066 -0.048414703 0.33000001
-0.18185171 -0.048414703 0.33000001
-0.18098278 -0.048414703 0.33000001
-0.18011384 -0.048414703 0.33000001
