# .PCD v0.7 - Point Cloud Data file format
VERSION 0.7
FIELDS x y z
SIZE 4 4 4
TYPE F F F
COUNT 1 1 1
WIDTH 1331
HEIGHT 1
VIEWPOINT 0 0 0 1 0 0 0
POINTS 1331
DATA ascii
-0.16590394 -0.080904163 0.32100001
-0.16608708 -0.08140824 0.32300001
-0.16625971 -0.081912316 0.32500002
-0.16591287 -0.082164355 0.32600001
-0.16606706 -0.082668431 0.32800001
-0.16570707 -0.082920469 0.32900003
-0.16584282 -0.083424546 0.33100003
-0.16596803 -0.083928615 0.333
-0.16608272 -0.084432691 0.33500001
-0.16569376 -0.084684737 0.33600003
-0.16579002 -0.085188814 0.33800003
-0.16538788 -0.085440844 0.33900002
-0.16595094 -0.086196959 0.34200001
-0.16601561 -0.086701035 0.34400001
-0.16606973 -0.087205112 0.34600002
-0.16611333 -0.087709188 0.34800002
-0.16614641 -0.088213265 0.35000002
-0.16616894 -0.088717341 0.35200003
-0.16618094 -0.08922141 0.354
-0.16571559 -0.089473456 0.35500002
-0.16570917 -0.089977533 0.35700002
-0.16523066 -0.090229563 0.35800001
-0.1647469 -0.090481609 0.35900003
-0.16425787 -0.09073364 0.36000001
-0.16376357 -0.090985686 0.36100003
-0.16281299 -0.090985686 0.36100003
-0.16231078 -0.091237716 0.36200002
-0.16180332 -0.091489755 0.36300001
-0.16084749 -0.091489755 0.36300001
-0.15989164 -0.091489755 0.36300001
-0.15937364 -0.091741793 0.36400002
-0.15841517 -0.091741793 0.36400002
-0.15788926 -0.091993831 0.36500001
-0.15692817 -0.091993831 0.36500001
-0.15596706 -0.091993831 0.36500001
-0.15500595 -0.091993831 0.36500001
-0.15404484 -0.091993831 0.36500001
-0.15308374 -0.091993831 0.36500001
-0.15212263 -0.091993831 0.36500001
-0.15116152 -0.091993831 0.36500001
-0.15020043 -0.091993831 0.36500001
-0.14923932 -0.091993831 0.36500001
-0.14827821 -0.091993831 0.36500001
-0.14731711 -0.091993831 0.36500001
-0.14675698 -0.092245869 0.36600003
-0.14579324 -0.092245869 0.36600003
-0.14443378 -0.091993831 0.36500001
-0.14347269 -0.091993831 0.36500001
-0.14251156 -0.091993831 0.36500001
-0.14155047 -0.091993831 0.36500001
-0.14058937 -0.091993831 0.36500001
-0.13962825 -0.091993831 0.36500001
-0.13866715 -0.091993831 0.36500001
-0.13770604 -0.091993831 0.36500001
-0.13674493 -0.091993831 0.36500001
-0.13578384 -0.091993831 0.36500001
-0.13482273 -0.091993831 0.36500001
-0.13386162 -0.091993831 0.36500001
-0.13290051 -0.091993831 0.36500001
-0.13193941 -0.091993831 0.36500001
-0.1309783 -0.091993831 0.36500001
-0.13001719 -0.091993831 0.36500001
-0.1290561 -0.091993831 0.36500001
-0.12809499 -0.091993831 0.36500001
-0.12713388 -0.091993831 0.36500001
-0.12617277 -0.091993831 0.36500001
-0.12521167 -0.091993831 0.36500001
-0.12425057 -0.091993831 0.36500001
-0.12328945 -0.091993831 0.36500001
-0.12232835 -0.091993831 0.36500001
-0.12136724 -0.091993831 0.36500001
-0.12040614 -0.091993831 0.36500001
-0.11944503 -0.091993831 0.36500001
-0.11848392 -0.091993831 0.36500001
-0.11752282 -0.091993831 0.36500001
-0.11656171 -0.091993831 0.36500001
-0.11560061 -0.091993831 0.36500001
-0.11463951 -0.091993831 0.36500001
-0.1136784 -0.091993831 0.36500001
-0.11271729 -0.091993831 0.36500001
-0.11175618 -0.091993831 0.36500001
-0.11079508 -0.091993831 0.36500001
-0.10983397 -0.091993831 0.36500001
-0.10887287 -0.091993831 0.36500001
-0.10791177 -0.091993831 0.36500001
-0.10695066 -0.091993831 0.36500001
-0.10598955 -0.091993831 0.36500001
-0.10502844 -0.091993831 0.36500001
-0.10406734 -0.091993831 0.36500001
-0.10310624 -0.091993831 0.36500001
-0.10214513 -0.091993831 0.36500001
-0.10118403 -0.091993831 0.36500001
-0.10022291 -0.091993831 0.36500001
-0.099261813 -0.091993831 0.36500001
-0.09830071 -0.091993831 0.36500001
-0.097339593 -0.091993831 0.36500001
-0.096378498 -0.091993831 0.36500001
-0.09541738 -0.091993831 0.36500001
-0.094456278 -0.091993831 0.36500001
-0.093495168 -0.091993831 0.36500001
-0.092534065 -0.091993831 0.36500001
-0.091572963 -0.091993831 0.36500001
-0.090860106 -0.092245869 0.36600003
-0.089896373 -0.092245869 0.36600003
-0.088932633 -0.092245869 0.36600003
-0.087968893 -0.092245869 0.36600003
-0.087005153 -0.092245869 0.36600003
-0.086041413 -0.092245869 0.36600003
-0.084845223 -0.091993831 0.36500001
-0.08388412 -0.091993831 0.36500001
-0.08292301 -0.091993831 0.36500001
-0.0819619 -0.091993831 0.36500001
-0.081000797 -0.091993831 0.36500001
-0.080039687 -0.091993831 0.36500001
-0.079078585 -0.091993831 0.36500001
-0.078117482 -0.091993831 0.36500001
-0.077156372 -0.091993831 0.36500001
-0.07619527 -0.091993831 0.36500001
-0.07523416 -0.091993831 0.36500001
-0.074273057 -0.091993831 0.36500001
-0.073311955 -0.091993831 0.36500001
-0.072350845 -0.091993831 0.36500001
-0.071389742 -0.091993831 0.36500001
-0.070428632 -0.091993831 0.36500001
-0.069467522 -0.091993831 0.36500001
-0.068506427 -0.091993831 0.36500001
-0.067545317 -0.091993831 0.36500001
-0.066584207 -0.091993831 0.36500001
-0.065623105 -0.091993831 0.36500001
-0.064661995 -0.091993831 0.36500001
-0.063700892 -0.091993831 0.36500001
-0.062739789 -0.091993831 0.36500001
-0.061947942 -0.092245869 0.36600003
-0.060984202 -0.092245869 0.36600003
-0.060020462 -0.092245869 0.36600003
-0.058895361 -0.091993831 0.36500001
-0.057934258 -0.091993831 0.36500001
-0.057129245 -0.092245869 0.36600003
-0.056012046 -0.091993831 0.36500001
-0.055050939 -0.091993831 0.36500001
-0.054089833 -0.091993831 0.36500001
-0.053128727 -0.091993831 0.36500001
-0.052167624 -0.091993831 0.36500001
-0.051206518 -0.091993831 0.36500001
-0.050245412 -0.091993831 0.36500001
-0.049284305 -0.091993831 0.36500001
-0.048323195 -0.091993831 0.36500001
-0.047362089 -0.091993831 0.36500001
-0.04640099 -0.091993831 0.36500001
-0.04543988 -0.091993831 0.36500001
-0.044478774 -0.091993831 0.36500001
-0.043517668 -0.091993831 0.36500001
-0.042556565 -0.091993831 0.36500001
-0.041595459 -0.091993831 0.36500001
-0.040634349 -0.091993831 0.36500001
-0.039673246 -0.091993831 0.36500001
-0.03871214 -0.091993831 0.36500001
-0.037751034 -0.091993831 0.36500001
-0.036789928 -0.091993831 0.36500001
-0.035828821 -0.091993831 0.36500001
-0.034867719 -0.091993831 0.36500001
-0.033906613 -0.091993831 0.36500001
-0.032945503 -0.091993831 0.36500001
-0.0319844 -0.091993831 0.36500001
-0.031023294 -0.091993831 0.36500001
-0.030062186 -0.091993831 0.36500001
-0.029101083 -0.091993831 0.36500001
-0.028139975 -0.091993831 0.36500001
-0.027178869 -0.091993831 0.36500001
-0.026217764 -0.091993831 0.36500001
-0.025256658 -0.091993831 0.36500001
-0.024295552 -0.091993831 0.36500001
-0.023334447 -0.091993831 0.36500001
-0.022373341 -0.091993831 0.36500001
-0.021412235 -0.091993831 0.36500001
-0.020451128 -0.091993831 0.36500001
-0.019490022 -0.091993831 0.36500001
-0.018528918 -0.091993831 0.36500001
-0.017567812 -0.091993831 0.36500001
-0.016606705 -0.091993831 0.36500001
-0.015645599 -0.091993831 0.36500001
-0.014684494 -0.091993831 0.36500001
-0.013723388 -0.091993831 0.36500001
-0.012762281 -0.091993831 0.36500001
-0.011833508 -0.092245869 0.36600003
-0.01084007 -0.091993831 0.36500001
-0.0098789642 -0.091993831 0.36500001
-0.0089178579 -0.091993831 0.36500001
-0.0079567526 -0.091993831 0.36500001
-0.0069956467 -0.091993831 0.36500001
-0.0060345414 -0.091993831 0.36500001
-0.0050734351 -0.091993831 0.36500001
-0.0041123293 -0.091993831 0.36500001
-0.0031512235 -0.091993831 0.36500001
-0.0021901177 -0.091993831 0.36500001
-0.0012290117 -0.091993831 0.36500001
-0.00026790591 -0.091993831 0.36500001
0.00069319998 -0.091993831 0.36500001
0.0016543058 -0.091993831 0.36500001
0.0026154115 -0.091993831 0.36500001
0.0035765173 -0.091993831 0.36500001
0.0045376234 -0.091993831 0.36500001
0.0054987292 -0.091993831 0.36500001
0.006459835 -0.091993831 0.36500001
0.0074209408 -0.091993831 0.36500001
0.0084050121 -0.092245869 0.36600003
0.0093687512 -0.092245869 0.36600003
0.010332489 -0.092245869 0.36600003
0.011296229 -0.092245869 0.36600003
0.012259968 -0.092245869 0.36600003
0.013223707 -0.092245869 0.36600003
0.014226209 -0.092497908 0.36700001
0.015192581 -0.092497908 0.36700001
0.016158953 -0.092497908 0.36700001
0.017125325 -0.092497908 0.36700001
0.018091697 -0.092497908 0.36700001
0.019058069 -0.092497908 0.36700001
0.020079006 -0.092749946 0.36800003
0.021048011 -0.092749946 0.36800003
0.022017017 -0.092749946 0.36800003
0.022986021 -0.092749946 0.36800003
0.023955029 -0.092749946 0.36800003
0.024856301 -0.092497908 0.36700001
0.025822675 -0.092497908 0.36700001
0.026789049 -0.092497908 0.36700001
0.027755419 -0.092497908 0.36700001
0.028643532 -0.092245869 0.36600003
0.029607272 -0.092245869 0.36600003
0.03057101 -0.092245869 0.36600003
0.03153475 -0.092245869 0.36600003
0.03249849 -0.092245869 0.36600003
0.033462226 -0.092245869 0.36600003
0.034425966 -0.092245869 0.36600003
0.035389706 -0.092245869 0.36600003
0.036353443 -0.092245869 0.36600003
0.037317183 -0.092245869 0.36600003
0.038176328 -0.091993831 0.36500001
0.039137434 -0.091993831 0.36500001
0.04009854 -0.091993831 0.36500001
0.041059643 -0.091993831 0.36500001
0.042020753 -0.091993831 0.36500001
0.042981859 -0.091993831 0.36500001
0.043942962 -0.091993831 0.36500001
0.044904068 -0.091993831 0.36500001
0.045865174 -0.091993831 0.36500001
0.046826281 -0.091993831 0.36500001
0.047918312 -0.092245869 0.36600003
0.048882052 -0.092245869 0.36600003
0.049845792 -0.092245869 0.36600003
0.050809529 -0.092245869 0.36600003
0.051773269 -0.092245869 0.36600003
0.052737009 -0.092245869 0.36600003
0.053700749 -0.092245869 0.36600003
0.054664489 -0.092245869 0.36600003
0.055628229 -0.092245869 0.36600003
0.056591962 -0.092245869 0.36600003
0.057555702 -0.092245869 0.36600003
0.058519442 -0.092245869 0.36600003
0.059483182 -0.092245869 0.36600003
0.060446922 -0.092245869 0.36600003
0.061410658 -0.092245869 0.36600003
0.062374398 -0.092245869 0.36600003
0.063338138 -0.092245869 0.36600003
0.064301878 -0.092245869 0.36600003
0.065265618 -0.092245869 0.36600003
0.066229358 -0.092245869 0.36600003
0.067193091 -0.092245869 0.36600003
0.068156831 -0.092245869 0.36600003
0.069120571 -0.092245869 0.36600003
0.070084311 -0.092245869 0.36600003
0.071048051 -0.092245869 0.36600003
0.072011791 -0.092245869 0.36600003
0.072975524 -0.092245869 0.36600003
0.073939264 -0.092245869 0.36600003
0.074903004 -0.092245869 0.36600003
0.075866744 -0.092245869 0.36600003
0.076830484 -0.092245869 0.36600003
0.077794224 -0.092245869 0.36600003
0.078757964 -0.092245869 0.36600003
0.079721704 -0.092245869 0.36600003
0.080685444 -0.092245869 0.36600003
0.081649184 -0.092245869 0.36600003
0.082612924 -0.092245869 0.36600003
0.083576657 -0.092245869 0.36600003
0.084540397 -0.092245869 0.36600003
0.085504137 -0.092245869 0.36600003
0.086467877 -0.092245869 0.36600003
0.087431617 -0.092245869 0.36600003
0.088395357 -0.092245869 0.36600003
0.08935909 -0.092245869 0.36600003
0.090076044 -0.091993831 0.36500001
0.091037147 -0.091993831 0.36500001
0.09225031 -0.092245869 0.36600003
0.093214042 -0.092245869 0.36600003
0.093920469 -0.091993831 0.36500001
0.094881572 -0.091993831 0.36500001
0.095842682 -0.091993831 0.36500001
0.096803784 -0.091993831 0.36500001
0.097764887 -0.091993831 0.36500001
0.098725997 -0.091993831 0.36500001
0.099687099 -0.091993831 0.36500001
0.10064821 -0.091993831 0.36500001
0.10160931 -0.091993831 0.36500001
0.10257041 -0.091993831 0.36500001
0.10353152 -0.091993831 0.36500001
0.10449263 -0.091993831 0.36500001
0.10545374 -0.091993831 0.36500001
0.10641484 -0.091993831 0.36500001
0.10737594 -0.091993831 0.36500001
0.10833706 -0.091993831 0.36500001
0.10929815 -0.091993831 0.36500001
0.11025927 -0.091993831 0.36500001
0.11122037 -0.091993831 0.36500001
0.11218148 -0.091993831 0.36500001
0.11314259 -0.091993831 0.36500001
0.11410369 -0.091993831 0.36500001
0.1150648 -0.091993831 0.36500001
0.1160259 -0.091993831 0.36500001
0.11698701 -0.091993831 0.36500001
0.11794811 -0.091993831 0.36500001
0.11890922 -0.091993831 0.36500001
0.11987033 -0.091993831 0.36500001
0.12083143 -0.091993831 0.36500001
0.12179254 -0.091993831 0.36500001
0.12275364 -0.091993831 0.36500001
0.12371475 -0.091993831 0.36500001
0.12467586 -0.091993831 0.36500001
0.12563695 -0.091993831 0.36500001
0.12659808 -0.091993831 0.36500001
0.12755917 -0.091993831 0.36500001
0.12852028 -0.091993831 0.36500001
0.12948139 -0.091993831 0.36500001
0.13044249 -0.091993831 0.36500001
0.1314036 -0.091993831 0.36500001
0.13236471 -0.091993831 0.36500001
0.13332582 -0.091993831 0.36500001
0.13428691 -0.091993831 0.36500001
0.13524802 -0.091993831 0.36500001
0.13620913 -0.091993831 0.36500001
0.13717023 -0.091993831 0.36500001
0.13813134 -0.091993831 0.36500001
0.13909245 -0.091993831 0.36500001
0.14005354 -0.091993831 0.36500001
0.14101465 -0.091993831 0.36500001
0.14197576 -0.091993831 0.36500001
0.14293687 -0.091993831 0.36500001
0.14389797 -0.091993831 0.36500001
0.14485908 -0.091993831 0.36500001
0.14582019 -0.091993831 0.36500001
0.14678128 -0.091993831 0.36500001
0.14774239 -0.091993831 0.36500001
0.1487035 -0.091993831 0.36500001
0.14966461 -0.091993831 0.36500001
0.15062571 -0.091993831 0.36500001
0.15200213 -0.092245869 0.36600003
0.15296587 -0.092245869 0.36600003
0.15392961 -0.092245869 0.36600003
0.15489335 -0.092245869 0.36600003
0.15585709 -0.092245869 0.36600003
0.15682082 -0.092245869 0.36600003
0.15778457 -0.092245869 0.36600003
0.1587483 -0.092245869 0.36600003
0.15971205 -0.092245869 0.36600003
0.16067578 -0.092245869 0.36600003
0.16163953 -0.092245869 0.36600003
0.16260326 -0.092245869 0.36600003
0.16356699 -0.092245869 0.36600003
0.16453074 -0.092245869 0.36600003
0.16549447 -0.092245869 0.36600003
0.16645822 -0.092245869 0.36600003
0.16742195 -0.092245869 0.36600003
0.16838568 -0.092245869 0.36600003
0.16934943 -0.092245869 0.36600003
0.17031316 -0.092245869 0.36600003
0.17127691 -0.092245869 0.36600003
0.17224064 -0.092245869 0.36600003
0.17320439 -0.092245869 0.36600003
-0.16873595 -0.071579151 0.287
-0.16798024 -0.071579151 0.287
-0.16780719 -0.071828559 0.28800002
-0.16762887 -0.07207796 0.289
-0.16744527 -0.072327375 0.29000002
-0.16725641 -0.072576776 0.29100001
-0.16706231 -0.072826184 0.29200003
-0.16686292 -0.073075585 0.29300001
-0.16665827 -0.073324986 0.294
-0.16644834 -0.073574394 0.29500002
-0.16679476 -0.074073203 0.29700002
-0.16657168 -0.074322604 0.29800001
-0.16689965 -0.07482142 0.30000001
-0.16666341 -0.075070828 0.30100003
-0.16697294 -0.07556963 0.303
-0.16672353 -0.075819038 0.30400002
-0.16646884 -0.076068439 0.30500001
-0.16675207 -0.076567248 0.30700001
-0.16648422 -0.076816656 0.30800003
-0.1662111 -0.077066064 0.30900002
-0.16646799 -0.077564873 0.31100002
-0.16618171 -0.077814274 0.31200001
-0.16642016 -0.078313082 0.31400001
-0.16612071 -0.078562491 0.31500003
-0.16634072 -0.079061292 0.317
-0.16602813 -0.0793107 0.31800002
-0.16622972 -0.079809517 0.32000002
-0.16642077 -0.080308326 0.32200003
-0.16608708 -0.080557726 0.32300001
-0.16625971 -0.081056535 0.32500002
-0.16591287 -0.081305936 0.32600001
-0.16606706 -0.081804745 0.32800001
-0.16621073 -0.082303561 0.33000001
-0.16584282 -0.082552969 0.33100003
-0.16596803 -0.083051771 0.333
-0.16608272 -0.08355058 0.33500001
-0.16569376 -0.083799988 0.33600003
-0.16579002 -0.084298797 0.33800003
-0.16538788 -0.084548205 0.33900002
-0.16546571 -0.085047014 0.34100002
-0.16601561 -0.085795224 0.34400001
-0.16606973 -0.086294033 0.34600002
-0.16611333 -0.086792842 0.34800002
-0.16614641 -0.087291658 0.35000002
-0.16616894 -0.087790467 0.35200003
-0.16618094 -0.088289268 0.354
-0.16571559 -0.088538677 0.35500002
-0.16570917 -0.089037485 0.35700002
-0.16523066 -0.089286894 0.35800001
-0.1647469 -0.089536302 0.35900003
-0.16425787 -0.089785703 0.36000001
-0.16376357 -0.090035111 0.36100003
-0.16281299 -0.090035111 0.36100003
-0.16231078 -0.090284511 0.36200002
-0.16180332 -0.090533912 0.36300001
-0.16084749 -0.090533912 0.36300001
-0.15989164 -0.090533912 0.36300001
-0.15937364 -0.09078332 0.36400002
-0.15841517 -0.09078332 0.36400002
-0.15788926 -0.091032721 0.36500001
-0.15692817 -0.091032721 0.36500001
-0.15596706 -0.091032721 0.36500001
-0.15500595 -0.091032721 0.36500001
-0.15404484 -0.091032721 0.36500001
-0.15308374 -0.091032721 0.36500001
-0.15212263 -0.091032721 0.36500001
-0.15116152 -0.091032721 0.36500001
-0.15020043 -0.091032721 0.36500001
-0.14923932 -0.091032721 0.36500001
-0.14827821 -0.091032721 0.36500001
-0.14772072 -0.091282129 0.36600003
-0.14675698 -0.091282129 0.36600003
-0.14579324 -0.091282129 0.36600003
-0.1448295 -0.091282129 0.36600003
-0.14347269 -0.091032721 0.36500001
-0.14251156 -0.091032721 0.36500001
-0.14155047 -0.091032721 0.36500001
-0.14058937 -0.091032721 0.36500001
-0.13962825 -0.091032721 0.36500001
-0.13866715 -0.091032721 0.36500001
-0.13770604 -0.091032721 0.36500001
-0.13674493 -0.091032721 0.36500001
-0.13578384 -0.091032721 0.36500001
-0.13482273 -0.091032721 0.36500001
-0.13386162 -0.091032721 0.36500001
-0.13290051 -0.091032721 0.36500001
-0.13193941 -0.091032721 0.36500001
-0.1309783 -0.091032721 0.36500001
-0.13001719 -0.091032721 0.36500001
-0.1290561 -0.091032721 0.36500001
-0.12809499 -0.091032721 0.36500001
-0.12713388 -0.091032721 0.36500001
-0.12617277 -0.091032721 0.36500001
-0.12521167 -0.091032721 0.36500001
-0.12425057 -0.091032721 0.36500001
-0.12328945 -0.091032721 0.36500001
-0.12232835 -0.091032721 0.36500001
-0.12136724 -0.091032721 0.36500001
-0.12040614 -0.091032721 0.36500001
-0.11944503 -0.091032721 0.36500001
-0.11848392 -0.091032721 0.36500001
-0.11752282 -0.091032721 0.36500001
-0.11656171 -0.091032721 0.36500001
-0.11560061 -0.091032721 0.36500001
-0.11463951 -0.091032721 0.36500001
-0.1136784 -0.091032721 0.36500001
-0.11271729 -0.091032721 0.36500001
-0.11175618 -0.091032721 0.36500001
-0.11079508 -0.091032721 0.36500001
-0.10983397 -0.091032721 0.36500001
-0.10887287 -0.091032721 0.36500001
-0.10791177 -0.091032721 0.36500001
-0.10695066 -0.091032721 0.36500001
-0.10598955 -0.091032721 0.36500001
-0.10502844 -0.091032721 0.36500001
-0.10406734 -0.091032721 0.36500001
-0.10310624 -0.091032721 0.36500001
-0.10214513 -0.091032721 0.36500001
-0.10118403 -0.091032721 0.36500001
-0.10022291 -0.091032721 0.36500001
-0.099261813 -0.091032721 0.36500001
-0.09830071 -0.091032721 0.36500001
-0.097339593 -0.091032721 0.36500001
-0.096378498 -0.091032721 0.36500001
-0.09541738 -0.091032721 0.36500001
-0.094456278 -0.091032721 0.36500001
-0.093495168 -0.091032721 0.36500001
-0.092534065 -0.091032721 0.36500001
-0.091572963 -0.091032721 0.36500001
-0.090860106 -0.091282129 0.36600003
-0.08965075 -0.091032721 0.36500001
-0.088689648 -0.091032721 0.36500001
-0.087728538 -0.091032721 0.36500001
-0.086767435 -0.091032721 0.36500001
-0.085806325 -0.091032721 0.36500001
-0.084845223 -0.091032721 0.36500001
-0.08388412 -0.091032721 0.36500001
-0.08292301 -0.091032721 0.36500001
-0.0819619 -0.091032721 0.36500001
-0.081000797 -0.091032721 0.36500001
-0.080039687 -0.091032721 0.36500001
-0.079078585 -0.091032721 0.36500001
-0.078117482 -0.091032721 0.36500001
-0.077156372 -0.091032721 0.36500001
-0.07619527 -0.091032721 0.36500001
-0.07523416 -0.091032721 0.36500001
-0.074273057 -0.091032721 0.36500001
-0.073311955 -0.091032721 0.36500001
-0.072350845 -0.091032721 0.36500001
-0.071389742 -0.091032721 0.36500001
-0.070428632 -0.091032721 0.36500001
-0.069467522 -0.091032721 0.36500001
-0.068506427 -0.091032721 0.36500001
-0.067545317 -0.091032721 0.36500001
-0.066584207 -0.091032721 0.36500001
-0.065623105 -0.091032721 0.36500001
-0.064661995 -0.091032721 0.36500001
-0.063700892 -0.091032721 0.36500001
-0.062739789 -0.091032721 0.36500001
-0.061947942 -0.091282129 0.36600003
-0.060984202 -0.091282129 0.36600003
-0.060020462 -0.091282129 0.36600003
-0.059056722 -0.091282129 0.36600003
-0.057934258 -0.091032721 0.36500001
-0.057129245 -0.091282129 0.36600003
-0.056012046 -0.091032721 0.36500001
-0.055050939 -0.091032721 0.36500001
-0.054089833 -0.091032721 0.36500001
-0.053128727 -0.091032721 0.36500001
-0.052167624 -0.091032721 0.36500001
-0.051206518 -0.091032721 0.36500001
-0.050245412 -0.091032721 0.36500001
-0.049284305 -0.091032721 0.36500001
-0.048323195 -0.091032721 0.36500001
-0.047362089 -0.091032721 0.36500001
-0.04640099 -0.091032721 0.36500001
-0.04543988 -0.091032721 0.36500001
-0.044478774 -0.091032721 0.36500001
-0.043517668 -0.091032721 0.36500001
-0.042556565 -0.091032721 0.36500001
-0.041595459 -0.091032721 0.36500001
-0.040634349 -0.091032721 0.36500001
-0.039673246 -0.091032721 0.36500001
-0.03871214 -0.091032721 0.36500001
-0.037751034 -0.091032721 0.36500001
-0.036789928 -0.091032721 0.36500001
-0.035828821 -0.091032721 0.36500001
-0.034867719 -0.091032721 0.36500001
-0.033906613 -0.091032721 0.36500001
-0.032945503 -0.091032721 0.36500001
-0.0319844 -0.091032721 0.36500001
-0.031023294 -0.091032721 0.36500001
-0.030062186 -0.091032721 0.36500001
-0.029101083 -0.091032721 0.36500001
-0.028139975 -0.091032721 0.36500001
-0.027178869 -0.091032721 0.36500001
-0.026217764 -0.091032721 0.36500001
-0.025256658 -0.091032721 0.36500001
-0.024295552 -0.091032721 0.36500001
-0.023334447 -0.091032721 0.36500001
-0.022373341 -0.091032721 0.36500001
-0.021412235 -0.091032721 0.36500001
-0.020451128 -0.091032721 0.36500001
-0.019490022 -0.091032721 0.36500001
-0.018528918 -0.091032721 0.36500001
-0.017567812 -0.091032721 0.36500001
-0.016606705 -0.091032721 0.36500001
-0.015645599 -0.091032721 0.36500001
-0.014684494 -0.091032721 0.36500001
-0.013723388 -0.091032721 0.36500001
-0.012797248 -0.091282129 0.36600003
-0.011833508 -0.091282129 0.36600003
-0.01086977 -0.091282129 0.36600003
-0.0098789642 -0.091032721 0.36500001
-0.0089178579 -0.091032721 0.36500001
-0.0079567526 -0.091032721 0.36500001
-0.0069956467 -0.091032721 0.36500001
-0.0060345414 -0.091032721 0.36500001
-0.0050734351 -0.091032721 0.36500001
-0.0041123293 -0.091032721 0.36500001
-0.0031512235 -0.091032721 0.36500001
-0.0021901177 -0.091032721 0.36500001
-0.0012290117 -0.091032721 0.36500001
-0.00026790591 -0.091032721 0.36500001
0.00069319998 -0.091032721 0.36500001
0.0016543058 -0.091032721 0.36500001
0.0026154115 -0.091032721 0.36500001
0.0035765173 -0.091032721 0.36500001
0.0045376234 -0.091032721 0.36500001
0.0054987292 -0.091032721 0.36500001
0.006459835 -0.091032721 0.36500001
0.0074209408 -0.091032721 0.36500001
0.0083820466 -0.091032721 0.36500001
0.0093687512 -0.091282129 0.36600003
0.010332489 -0.091282129 0.36600003
0.011296229 -0.091282129 0.36600003
0.012259968 -0.091282129 0.36600003
0.013223707 -0.091282129 0.36600003
0.014187447 -0.091282129 0.36600003
0.015192581 -0.09153153 0.36700001
0.016158953 -0.09153153 0.36700001
0.017125325 -0.09153153 0.36700001
0.018091697 -0.09153153 0.36700001
0.019058069 -0.09153153 0.36700001
0.020024441 -0.09153153 0.36700001
0.021048011 -0.091780946 0.36800003
0.022017017 -0.091780946 0.36800003
0.022923559 -0.09153153 0.36700001
0.023889931 -0.09153153 0.36700001
0.024856301 -0.09153153 0.36700001
0.025822675 -0.09153153 0.36700001
0.026789049 -0.09153153 0.36700001
0.027755419 -0.09153153 0.36700001
0.028643532 -0.091282129 0.36600003
0.029607272 -0.091282129 0.36600003
0.03057101 -0.091282129 0.36600003
0.03153475 -0.091282129 0.36600003
0.03249849 -0.091282129 0.36600003
0.033462226 -0.091282129 0.36600003
0.034425966 -0.091282129 0.36600003
0.035389706 -0.091282129 0.36600003
0.036353443 -0.091282129 0.36600003
0.037317183 -0.091282129 0.36600003
0.038280923 -0.091282129 0.36600003
0.039137434 -0.091032721 0.36500001
0.04009854 -0.091032721 0.36500001
0.041059643 -0.091032721 0.36500001
0.042020753 -0.091032721 0.36500001
0.042981859 -0.091032721 0.36500001
0.043942962 -0.091032721 0.36500001
0.044904068 -0.091032721 0.36500001
0.045865174 -0.091032721 0.36500001
0.046826281 -0.091032721 0.36500001
0.047787387 -0.091032721 0.36500001
0.048748493 -0.091032721 0.36500001
0.049845792 -0.091282129 0.36600003
0.050809529 -0.091282129 0.36600003
0.051773269 -0.091282129 0.36600003
0.052737009 -0.091282129 0.36600003
0.053700749 -0.091282129 0.36600003
0.054664489 -0.091282129 0.36600003
0.055628229 -0.091282129 0.36600003
0.056591962 -0.091282129 0.36600003
0.057555702 -0.091282129 0.36600003
0.058519442 -0.091282129 0.36600003
0.059483182 -0.091282129 0.36600003
0.060446922 -0.091282129 0.36600003
0.061410658 -0.091282129 0.36600003
0.062374398 -0.091282129 0.36600003
0.063338138 -0.091282129 0.36600003
0.064301878 -0.091282129 0.36600003
0.065265618 -0.091282129 0.36600003
0.066229358 -0.091282129 0.36600003
0.067193091 -0.091282129 0.36600003
0.068156831 -0.091282129 0.36600003
0.069120571 -0.091282129 0.36600003
0.070084311 -0.091282129 0.36600003
0.071048051 -0.091282129 0.36600003
0.072011791 -0.091282129 0.36600003
0.072975524 -0.091282129 0.36600003
0.073939264 -0.091282129 0.36600003
0.074903004 -0.091282129 0.36600003
0.075866744 -0.091282129 0.36600003
0.076830484 -0.091282129 0.36600003
0.077794224 -0.091282129 0.36600003
0.078757964 -0.091282129 0.36600003
0.079721704 -0.091282129 0.36600003
0.080685444 -0.091282129 0.36600003
0.081649184 -0.091282129 0.36600003
0.082612924 -0.091282129 0.36600003
0.083576657 -0.091282129 0.36600003
0.084540397 -0.091282129 0.36600003
0.085504137 -0.091282129 0.36600003
0.086467877 -0.091282129 0.36600003
0.087431617 -0.091282129 0.36600003
0.088395357 -0.091282129 0.36600003
0.08935909 -0.091282129 0.36600003
0.090076044 -0.091032721 0.36500001
0.091037147 -0.091032721 0.36500001
0.091998257 -0.091032721 0.36500001
0.092959359 -0.091032721 0.36500001
0.093920469 -0.091032721 0.36500001
0.094881572 -0.091032721 0.36500001
0.095842682 -0.091032721 0.36500001
0.096803784 -0.091032721 0.36500001
0.097764887 -0.091032721 0.36500001
0.098725997 -0.091032721 0.36500001
0.099687099 -0.091032721 0.36500001
0.10064821 -0.091032721 0.36500001
0.10160931 -0.091032721 0.36500001
0.10257041 -0.091032721 0.36500001
0.10353152 -0.091032721 0.36500001
0.10449263 -0.091032721 0.36500001
0.10545374 -0.091032721 0.36500001
0.10641484 -0.091032721 0.36500001
0.10737594 -0.091032721 0.36500001
0.10833706 -0.091032721 0.36500001
0.10929815 -0.091032721 0.36500001
0.11025927 -0.091032721 0.36500001
0.11122037 -0.091032721 0.36500001
0.11218148 -0.091032721 0.36500001
0.11314259 -0.091032721 0.36500001
0.11410369 -0.091032721 0.36500001
0.1150648 -0.091032721 0.36500001
0.1160259 -0.091032721 0.36500001
0.11698701 -0.091032721 0.36500001
0.11794811 -0.091032721 0.36500001
0.11890922 -0.091032721 0.36500001
0.11987033 -0.091032721 0.36500001
0.12083143 -0.091032721 0.36500001
0.12179254 -0.091032721 0.36500001
0.12275364 -0.091032721 0.36500001
0.12371475 -0.091032721 0.36500001
0.12467586 -0.091032721 0.36500001
0.12563695 -0.091032721 0.36500001
0.12659808 -0.091032721 0.36500001
0.12755917 -0.091032721 0.36500001
0.12852028 -0.091032721 0.36500001
0.12948139 -0.091032721 0.36500001
0.13044249 -0.091032721 0.36500001
0.1314036 -0.091032721 0.36500001
0.13236471 -0.091032721 0.36500001
0.13332582 -0.091032721 0.36500001
0.13428691 -0.091032721 0.36500001
0.13524802 -0.091032721 0.36500001
0.13620913 -0.091032721 0.36500001
0.13717023 -0.091032721 0.36500001
0.13813134 -0.091032721 0.36500001
0.13909245 -0.091032721 0.36500001
0.14005354 -0.091032721 0.36500001
0.14101465 -0.091032721 0.36500001
0.14197576 -0.091032721 0.36500001
0.14293687 -0.091032721 0.36500001
0.14389797 -0.091032721 0.36500001
0.14485908 -0.091032721 0.36500001
0.14582019 -0.091032721 0.36500001
0.14678128 -0.091032721 0.36500001
0.14774239 -0.091032721 0.36500001
0.1487035 -0.091032721 0.36500001
0.15007466 -0.091282129 0.36600003
0.15103839 -0.091282129 0.36600003
0.15200213 -0.091282129 0.36600003
0.15296587 -0.091282129 0.36600003
0.15392961 -0.091282129 0.36600003
0.15489335 -0.091282129 0.36600003
0.15585709 -0.091282129 0.36600003
0.15682082 -0.091282129 0.36600003
0.15778457 -0.091282129 0.36600003
0.1587483 -0.091282129 0.36600003
0.15971205 -0.091282129 0.36600003
0.16067578 -0.091282129 0.36600003
0.16163953 -0.091282129 0.36600003
0.16260326 -0.091282129 0.36600003
0.16356699 -0.091282129 0.36600003
0.16453074 -0.091282129 0.36600003
0.16549447 -0.091282129 0.36600003
0.16645822 -0.091282129 0.36600003
0.16742195 -0.091282129 0.36600003
0.16838568 -0.091282129 0.36600003
0.16934943 -0.091282129 0.36600003
0.17031316 -0.091282129 0.36600003
0.17127691 -0.091282129 0.36600003
0.17224064 -0.091282129 0.36600003
0.17320439 -0.091282129 0.36600003
-0.16873595 -0.070823431 0.287
-0.16798024 -0.070823431 0.287
-0.16780719 -0.071070209 0.28800002
-0.16762887 -0.07131698 0.289
-0.16744527 -0.071563751 0.29000002
-0.16725641 -0.071810521 0.29100001
-0.16706231 -0.072057299 0.29200003
-0.16686292 -0.072304063 0.29300001
-0.16665827 -0.072550833 0.294
-0.16644834 -0.072797611 0.29500002
-0.16679476 -0.073291153 0.29700002
-0.16657168 -0.073537923 0.29800001
-0.16689965 -0.074031465 0.30000001
-0.16666341 -0.074278243 0.30100003
-0.16697294 -0.074771777 0.303
-0.16672353 -0.075018555 0.30400002
-0.16646884 -0.075265326 0.30500001
-0.16675207 -0.075758867 0.30700001
-0.16646799 -0.076745957 0.31100002
-0.16618171 -0.07699272 0.31200001
-0.16642016 -0.077486269 0.31400001
-0.16612071 -0.07773304 0.31500003
-0.16634072 -0.078226581 0.317
-0.16602813 -0.078473359 0.31800002
-0.16622972 -0.078966901 0.32000002
-0.16642077 -0.079460442 0.32200003
-0.16660127 -0.079953983 0.324
-0.16625971 -0.080200754 0.32500002
-0.1664218 -0.080694303 0.32700002
-0.16606706 -0.080941066 0.32800001
-0.16621073 -0.081434615 0.33000001
-0.16584282 -0.081681386 0.33100003
-0.16596803 -0.082174927 0.333
-0.16608272 -0.082668468 0.33500001
-0.16569376 -0.082915246 0.33600003
-0.16579002 -0.083408788 0.33800003
-0.16538788 -0.083655559 0.33900002
-0.16546571 -0.0841491 0.34100002
-0.16611333 -0.085876502 0.34800002
-0.1666211 -0.086616814 0.35100001
-0.16616894 -0.086863592 0.35200003
-0.16618094 -0.087357126 0.354
-0.1661824 -0.087850675 0.35600001
-0.16570917 -0.088097446 0.35700002
-0.16523066 -0.088344216 0.35800001
-0.1647469 -0.088590994 0.35900003
-0.16425787 -0.088837758 0.36000001
-0.16376357 -0.089084536 0.36100003
-0.16326399 -0.089331307 0.36200002
-0.16231078 -0.089331307 0.36200002
-0.16180332 -0.08957807 0.36300001
-0.16084749 -0.08957807 0.36300001
-0.15989164 -0.08957807 0.36300001
-0.15937364 -0.089824848 0.36400002
-0.15841517 -0.089824848 0.36400002
-0.15788926 -0.090071619 0.36500001
-0.15692817 -0.090071619 0.36500001
-0.15596706 -0.090071619 0.36500001
-0.15500595 -0.090071619 0.36500001
-0.15404484 -0.090071619 0.36500001
-0.15308374 -0.090071619 0.36500001
-0.15212263 -0.090071619 0.36500001
-0.15116152 -0.090071619 0.36500001
-0.15020043 -0.090071619 0.36500001
-0.14923932 -0.090071619 0.36500001
-0.14827821 -0.090071619 0.36500001
-0.14772072 -0.090318389 0.36600003
-0.14675698 -0.090318389 0.36600003
-0.14579324 -0.090318389 0.36600003
-0.1448295 -0.090318389 0.36600003
-0.14386576 -0.090318389 0.36600003
-0.14290202 -0.090318389 0.36600003
-0.14155047 -0.090071619 0.36500001
-0.14058937 -0.090071619 0.36500001
-0.13962825 -0.090071619 0.36500001
-0.13866715 -0.090071619 0.36500001
-0.13770604 -0.090071619 0.36500001
-0.13674493 -0.090071619 0.36500001
-0.13578384 -0.090071619 0.36500001
-0.13482273 -0.090071619 0.36500001
-0.13386162 -0.090071619 0.36500001
-0.13290051 -0.090071619 0.36500001
-0.13193941 -0.090071619 0.36500001
-0.1309783 -0.090071619 0.36500001
-0.13001719 -0.090071619 0.36500001
-0.1290561 -0.090071619 0.36500001
-0.12809499 -0.090071619 0.36500001
-0.12713388 -0.090071619 0.36500001
-0.12617277 -0.090071619 0.36500001
-0.12521167 -0.090071619 0.36500001
-0.12425057 -0.090071619 0.36500001
-0.12328945 -0.090071619 0.36500001
-0.12232835 -0.090071619 0.36500001
-0.12136724 -0.090071619 0.36500001
-0.12040614 -0.090071619 0.36500001
-0.11944503 -0.090071619 0.36500001
-0.11848392 -0.090071619 0.36500001
-0.11752282 -0.090071619 0.36500001
-0.11656171 -0.090071619 0.36500001
-0.11560061 -0.090071619 0.36500001
-0.11463951 -0.090071619 0.36500001
-0.1136784 -0.090071619 0.36500001
-0.11271729 -0.090071619 0.36500001
-0.11175618 -0.090071619 0.36500001
-0.11079508 -0.090071619 0.36500001
-0.10983397 -0.090071619 0.36500001
-0.10887287 -0.090071619 0.36500001
-0.10791177 -0.090071619 0.36500001
-0.10695066 -0.090071619 0.36500001
-0.10598955 -0.090071619 0.36500001
-0.10502844 -0.090071619 0.36500001
-0.10406734 -0.090071619 0.36500001
-0.10310624 -0.090071619 0.36500001
-0.10214513 -0.090071619 0.36500001
-0.10118403 -0.090071619 0.36500001
-0.10022291 -0.090071619 0.36500001
-0.099261813 -0.090071619 0.36500001
-0.09830071 -0.090071619 0.36500001
-0.097339593 -0.090071619 0.36500001
-0.096378498 -0.090071619 0.36500001
-0.09541738 -0.090071619 0.36500001
-0.094456278 -0.090071619 0.36500001
-0.093495168 -0.090071619 0.36500001
-0.092534065 -0.090071619 0.36500001
-0.091572963 -0.090071619 0.36500001
-0.090611853 -0.090071619 0.36500001
-0.08965075 -0.090071619 0.36500001
-0.088689648 -0.090071619 0.36500001
-0.087728538 -0.090071619 0.36500001
-0.086767435 -0.090071619 0.36500001
-0.085806325 -0.090071619 0.36500001
-0.084845223 -0.090071619 0.36500001
-0.08388412 -0.090071619 0.36500001
-0.08292301 -0.090071619 0.36500001
-0.0819619 -0.090071619 0.36500001
-0.081000797 -0.090071619 0.36500001
-0.080039687 -0.090071619 0.36500001
-0.079078585 -0.090071619 0.36500001
-0.078117482 -0.090071619 0.36500001
-0.077156372 -0.090071619 0.36500001
-0.07619527 -0.090071619 0.36500001
-0.07523416 -0.090071619 0.36500001
-0.074273057 -0.090071619 0.36500001
-0.073311955 -0.090071619 0.36500001
-0.072350845 -0.090071619 0.36500001
-0.071389742 -0.090071619 0.36500001
-0.070428632 -0.090071619 0.36500001
-0.069467522 -0.090071619 0.36500001
-0.068506427 -0.090071619 0.36500001
-0.067545317 -0.090071619 0.36500001
-0.066584207 -0.090071619 0.36500001
-0.065623105 -0.090071619 0.36500001
-0.064661995 -0.090071619 0.36500001
-0.063700892 -0.090071619 0.36500001
-0.062739789 -0.090071619 0.36500001
-0.061947942 -0.090318389 0.36600003
-0.060984202 -0.090318389 0.36600003
-0.060020462 -0.090318389 0.36600003
-0.059056722 -0.090318389 0.36600003
-0.058092985 -0.090318389 0.36600003
-0.057129245 -0.090318389 0.36600003
-0.056012046 -0.090071619 0.36500001
-0.055201765 -0.090318389 0.36600003
-0.054089833 -0.090071619 0.36500001
-0.053128727 -0.090071619 0.36500001
-0.052167624 -0.090071619 0.36500001
-0.051206518 -0.090071619 0.36500001
-0.050245412 -0.090071619 0.36500001
-0.049284305 -0.090071619 0.36500001
-0.048323195 -0.090071619 0.36500001
-0.047362089 -0.090071619 0.36500001
-0.04640099 -0.090071619 0.36500001
-0.04543988 -0.090071619 0.36500001
-0.044478774 -0.090071619 0.36500001
-0.043517668 -0.090071619 0.36500001
-0.042556565 -0.090071619 0.36500001
-0.041595459 -0.090071619 0.36500001
-0.040634349 -0.090071619 0.36500001
-0.039673246 -0.090071619 0.36500001
-0.03871214 -0.090071619 0.36500001
-0.037751034 -0.090071619 0.36500001
-0.036789928 -0.090071619 0.36500001
-0.035828821 -0.090071619 0.36500001
-0.034867719 -0.090071619 0.36500001
-0.033906613 -0.090071619 0.36500001
-0.032945503 -0.090071619 0.36500001
-0.0319844 -0.090071619 0.36500001
-0.031023294 -0.090071619 0.36500001
-0.030062186 -0.090071619 0.36500001
-0.029101083 -0.090071619 0.36500001
-0.028139975 -0.090071619 0.36500001
-0.027178869 -0.090071619 0.36500001
-0.026217764 -0.090071619 0.36500001
-0.025256658 -0.090071619 0.36500001
-0.024295552 -0.090071619 0.36500001
-0.023334447 -0.090071619 0.36500001
-0.022373341 -0.090071619 0.36500001
-0.021412235 -0.090071619 0.36500001
-0.020451128 -0.090071619 0.36500001
-0.019490022 -0.090071619 0.36500001
-0.018528918 -0.090071619 0.36500001
-0.017567812 -0.090071619 0.36500001
-0.016606705 -0.090071619 0.36500001
-0.015645599 -0.090071619 0.36500001
-0.014684494 -0.090071619 0.36500001
-0.013760988 -0.090318389 0.36600003
-0.012797248 -0.090318389 0.36600003
-0.011833508 -0.090318389 0.36600003
-0.01086977 -0.090318389 0.36600003
-0.0098789642 -0.090071619 0.36500001
-0.0089178579 -0.090071619 0.36500001
-0.0079567526 -0.090071619 0.36500001
-0.0069956467 -0.090071619 0.36500001
-0.0060345414 -0.090071619 0.36500001
-0.0050734351 -0.090071619 0.36500001
-0.0041123293 -0.090071619 0.36500001
-0.0031512235 -0.090071619 0.36500001
-0.0021901177 -0.090071619 0.36500001
-0.0012290117 -0.090071619 0.36500001
-0.00026790591 -0.090071619 0.36500001
0.00069319998 -0.090071619 0.36500001
0.0016543058 -0.090071619 0.36500001
0.0026154115 -0.090071619 0.36500001
0.0035765173 -0.090071619 0.36500001
0.0045376234 -0.090071619 0.36500001
0.0054987292 -0.090071619 0.36500001
0.006459835 -0.090071619 0.36500001
0.0074412725 -0.090318389 0.36600003
0.0084050121 -0.090318389 0.36600003
0.0093687512 -0.090318389 0.36600003
0.010332489 -0.090318389 0.36600003
0.011296229 -0.090318389 0.36600003
0.012259968 -0.090318389 0.36600003
0.013223707 -0.090318389 0.36600003
0.014187447 -0.090318389 0.36600003
0.015151185 -0.090318389 0.36600003
0.016114924 -0.090318389 0.36600003
0.017078664 -0.090318389 0.36600003
0.018091697 -0.09056516 0.36700001
0.019058069 -0.09056516 0.36700001
0.020024441 -0.09056516 0.36700001
0.020990815 -0.09056516 0.36700001
0.021957187 -0.09056516 0.36700001
0.022923559 -0.09056516 0.36700001
0.023889931 -0.09056516 0.36700001
0.024856301 -0.09056516 0.36700001
0.025822675 -0.09056516 0.36700001
0.026789049 -0.09056516 0.36700001
0.027679792 -0.090318389 0.36600003
0.028643532 -0.090318389 0.36600003
0.029607272 -0.090318389 0.36600003
0.03057101 -0.090318389 0.36600003
0.03153475 -0.090318389 0.36600003
0.03249849 -0.090318389 0.36600003
0.033462226 -0.090318389 0.36600003
0.034425966 -0.090318389 0.36600003
0.035389706 -0.090318389 0.36600003
0.036353443 -0.090318389 0.36600003
0.037317183 -0.090318389 0.36600003
0.038280923 -0.090318389 0.36600003
0.039137434 -0.090071619 0.36500001
0.04009854 -0.090071619 0.36500001
0.041059643 -0.090071619 0.36500001
0.042020753 -0.090071619 0.36500001
0.042981859 -0.090071619 0.36500001
0.043942962 -0.090071619 0.36500001
0.044904068 -0.090071619 0.36500001
0.045865174 -0.090071619 0.36500001
0.046826281 -0.090071619 0.36500001
0.047787387 -0.090071619 0.36500001
0.048748493 -0.090071619 0.36500001
0.049709599 -0.090071619 0.36500001
0.050809529 -0.090318389 0.36600003
0.051773269 -0.090318389 0.36600003
0.052737009 -0.090318389 0.36600003
0.053700749 -0.090318389 0.36600003
0.054664489 -0.090318389 0.36600003
0.055628229 -0.090318389 0.36600003
0.056591962 -0.090318389 0.36600003
0.057555702 -0.090318389 0.36600003
0.058519442 -0.090318389 0.36600003
0.059483182 -0.090318389 0.36600003
0.060446922 -0.090318389 0.36600003
0.061410658 -0.090318389 0.36600003
0.062374398 -0.090318389 0.36600003
0.063338138 -0.090318389 0.36600003
0.064301878 -0.090318389 0.36600003
0.065265618 -0.090318389 0.36600003
0.066229358 -0.090318389 0.36600003
0.067193091 -0.090318389 0.36600003
0.068156831 -0.090318389 0.36600003
0.069120571 -0.090318389 0.36600003
0.070084311 -0.090318389 0.36600003
0.071048051 -0.090318389 0.36600003
0.072011791 -0.090318389 0.36600003
0.072975524 -0.090318389 0.36600003
0.073939264 -0.090318389 0.36600003
0.074903004 -0.090318389 0.36600003
0.075866744 -0.090318389 0.36600003
0.076830484 -0.090318389 0.36600003
0.077794224 -0.090318389 0.36600003
0.078757964 -0.090318389 0.36600003
0.079721704 -0.090318389 0.36600003
0.080685444 -0.090318389 0.36600003
0.081649184 -0.090318389 0.36600003
0.082612924 -0.090318389 0.36600003
0.083576657 -0.090318389 0.36600003
0.084540397 -0.090318389 0.36600003
0.085504137 -0.090318389 0.36600003
0.086467877 -0.090318389 0.36600003
0.087431617 -0.090318389 0.36600003
0.088395357 -0.090318389 0.36600003
0.089114934 -0.090071619 0.36500001
0.090076044 -0.090071619 0.36500001
0.091037147 -0.090071619 0.36500001
0.091998257 -0.090071619 0.36500001
0.092959359 -0.090071619 0.36500001
0.093920469 -0.090071619 0.36500001
0.094881572 -0.090071619 0.36500001
0.095842682 -0.090071619 0.36500001
0.096803784 -0.090071619 0.36500001
0.097764887 -0.090071619 0.36500001
0.098725997 -0.090071619 0.36500001
0.099687099 -0.090071619 0.36500001
0.10064821 -0.090071619 0.36500001
0.10160931 -0.090071619 0.36500001
0.10257041 -0.090071619 0.36500001
0.10353152 -0.090071619 0.36500001
0.10449263 -0.090071619 0.36500001
0.10545374 -0.090071619 0.36500001
0.10641484 -0.090071619 0.36500001
0.10737594 -0.090071619 0.36500001
0.10833706 -0.090071619 0.36500001
0.10929815 -0.090071619 0.36500001
0.11025927 -0.090071619 0.36500001
0.11122037 -0.090071619 0.36500001
0.11218148 -0.090071619 0.36500001
0.11314259 -0.090071619 0.36500001
0.11410369 -0.090071619 0.36500001
0.1150648 -0.090071619 0.36500001
0.1160259 -0.090071619 0.36500001
0.11698701 -0.090071619 0.36500001
0.11794811 -0.090071619 0.36500001
0.11890922 -0.090071619 0.36500001
0.11987033 -0.090071619 0.36500001
0.12083143 -0.090071619 0.36500001
0.12179254 -0.090071619 0.36500001
0.12275364 -0.090071619 0.36500001
0.12371475 -0.090071619 0.36500001
0.12467586 -0.090071619 0.36500001
0.12563695 -0.090071619 0.36500001
0.12659808 -0.090071619 0.36500001
0.12755917 -0.090071619 0.36500001
0.12852028 -0.090071619 0.36500001
0.12948139 -0.090071619 0.36500001
0.13044249 -0.090071619 0.36500001
0.1314036 -0.090071619 0.36500001
0.13236471 -0.090071619 0.36500001
0.13332582 -0.090071619 0.36500001
0.13428691 -0.090071619 0.36500001
0.13524802 -0.090071619 0.36500001
0.13620913 -0.090071619 0.36500001
0.13717023 -0.090071619 0.36500001
0.13813134 -0.090071619 0.36500001
0.13909245 -0.090071619 0.36500001
0.14005354 -0.090071619 0.36500001
0.14101465 -0.090071619 0.36500001
0.14197576 -0.090071619 0.36500001
0.14293687 -0.090071619 0.36500001
0.14389797 -0.090071619 0.36500001
0.14485908 -0.090071619 0.36500001
0.14582019 -0.090071619 0.36500001
0.14678128 -0.090071619 0.36500001
0.14774239 -0.090071619 0.36500001
0.14911091 -0.090318389 0.36600003
0.15007466 -0.090318389 0.36600003
0.15103839 -0.090318389 0.36600003
0.15200213 -0.090318389 0.36600003
0.15296587 -0.090318389 0.36600003
0.15392961 -0.090318389 0.36600003
0.15489335 -0.090318389 0.36600003
0.15585709 -0.090318389 0.36600003
0.15682082 -0.090318389 0.36600003
0.15778457 -0.090318389 0.36600003
0.1587483 -0.090318389 0.36600003
0.15971205 -0.090318389 0.36600003
0.16067578 -0.090318389 0.36600003
0.16163953 -0.090318389 0.36600003
0.16260326 -0.090318389 0.36600003
0.16356699 -0.090318389 0.36600003
0.16453074 -0.090318389 0.36600003
0.16549447 -0.090318389 0.36600003
0.16645822 -0.090318389 0.36600003
0.16742195 -0.090318389 0.36600003
0.16838568 -0.090318389 0.36600003
0.16934943 -0.090318389 0.36600003
0.17031316 -0.090318389 0.36600003
0.17127691 -0.090318389 0.36600003
0.17224064 -0.090318389 0.36600003
0.17320439 -0.090318389 0.36600003
-0.16873595 -0.070067711 0.287
-0.16798024 -0.070067711 0.287
-0.16780719 -0.070311859 0.28800002
-0.16762887 -0.070555992 0.289
-0.16744527 -0.070800133 0.29000002
-0.16725641 -0.071044266 0.29100001
-0.16706231 -0.071288414 0.29200003
-0.16686292 -0.071532547 0.29300001
-0.16665827 -0.071776681 0.294
-0.16644834 -0.072020821 0.29500002
-0.16679476 -0.072509103 0.29700002
-0.16657168 -0.072753236 0.29800001
-0.16689965 -0.073241517 0.30000001
-0.16666341 -0.073485658 0.30100003
-0.16697294 -0.073973931 0.303
-0.16672353 -0.074218072 0.30400002
-0.16646884 -0.074462205 0.30500001
-0.16675207 -0.074950486 0.30700001
-0.16648422 -0.075194627 0.30800003
-0.1662111 -0.07543876 0.30900002
-0.16646799 -0.075927041 0.31100002
-0.16618171 -0.076171175 0.31200001
-0.16642016 -0.076659456 0.31400001
-0.16612071 -0.076903597 0.31500003
-0.16581599 -0.07714773 0.31600001
-0.16602813 -0.077636011 0.31800002
-0.16660127 -0.079100832 0.324
-0.16625971 -0.079344973 0.32500002
-0.1664218 -0.079833254 0.32700002
-0.16606706 -0.080077387 0.32800001
-0.16621073 -0.080565669 0.33000001
-0.16634384 -0.081053942 0.33200002
-0.16596803 -0.081298083 0.333
-0.16608272 -0.081786357 0.33500001
-0.16618688 -0.082274638 0.33700001
-0.16579002 -0.082518779 0.33800003
-0.16587575 -0.083007045 0.34
-0.16595094 -0.083495326 0.34200001
-0.1666211 -0.08569257 0.35100001
-0.166641 -0.086180851 0.35300002
-0.16618094 -0.086424984 0.354
-0.1661824 -0.086913265 0.35600001
-0.16570917 -0.087157406 0.35700002
-0.16523066 -0.087401539 0.35800001
-0.1647469 -0.08764568 0.35900003
-0.16425787 -0.08788982 0.36000001
-0.16376357 -0.088133961 0.36100003
-0.16326399 -0.088378094 0.36200002
-0.16231078 -0.088378094 0.36200002
-0.16180332 -0.088622235 0.36300001
-0.16084749 -0.088622235 0.36300001
-0.15989164 -0.088622235 0.36300001
-0.15937364 -0.088866375 0.36400002
-0.15841517 -0.088866375 0.36400002
-0.15788926 -0.089110509 0.36500001
-0.15692817 -0.089110509 0.36500001
-0.15596706 -0.089110509 0.36500001
-0.15500595 -0.089110509 0.36500001
-0.15404484 -0.089110509 0.36500001
-0.15308374 -0.089110509 0.36500001
-0.15212263 -0.089110509 0.36500001
-0.15116152 -0.089110509 0.36500001
-0.15020043 -0.089110509 0.36500001
-0.14923932 -0.089110509 0.36500001
-0.14868446 -0.089354649 0.36600003
-0.14772072 -0.089354649 0.36600003
-0.14675698 -0.089354649 0.36600003
-0.14579324 -0.089354649 0.36600003
-0.1448295 -0.089354649 0.36600003
-0.14386576 -0.089354649 0.36600003
-0.14290202 -0.089354649 0.36600003
-0.14155047 -0.089110509 0.36500001
-0.14058937 -0.089110509 0.36500001
-0.13962825 -0.089110509 0.36500001
-0.13866715 -0.089110509 0.36500001
-0.13770604 -0.089110509 0.36500001
-0.13674493 -0.089110509 0.36500001
-0.13578384 -0.089110509 0.36500001
-0.13482273 -0.089110509 0.36500001
-0.13386162 -0.089110509 0.36500001
-0.13290051 -0.089110509 0.36500001
-0.13193941 -0.089110509 0.36500001
-0.1309783 -0.089110509 0.36500001
-0.13001719 -0.089110509 0.36500001
-0.1290561 -0.089110509 0.36500001
-0.12809499 -0.089110509 0.36500001
-0.12713388 -0.089110509 0.36500001
-0.12617277 -0.089110509 0.36500001
-0.12521167 -0.089110509 0.36500001
-0.12425057 -0.089110509 0.36500001
-0.12328945 -0.089110509 0.36500001
-0.12232835 -0.089110509 0.36500001
-0.12136724 -0.089110509 0.36500001
-0.12040614 -0.089110509 0.36500001
-0.11944503 -0.089110509 0.36500001
-0.11848392 -0.089110509 0.36500001
-0.11752282 -0.089110509 0.36500001
-0.11656171 -0.089110509 0.36500001
-0.11560061 -0.089110509 0.36500001
-0.11463951 -0.089110509 0.36500001
-0.1136784 -0.089110509 0.36500001
-0.11271729 -0.089110509 0.36500001
-0.11175618 -0.089110509 0.36500001
-0.11079508 -0.089110509 0.36500001
-0.10983397 -0.089110509 0.36500001
-0.10887287 -0.089110509 0.36500001
-0.10791177 -0.089110509 0.36500001
-0.10695066 -0.089110509 0.36500001
-0.10598955 -0.089110509 0.36500001
-0.10502844 -0.089110509 0.36500001
-0.10406734 -0.089110509 0.36500001
-0.10310624 -0.089110509 0.36500001
-0.10214513 -0.089110509 0.36500001
-0.10118403 -0.089110509 0.36500001
-0.10022291 -0.089110509 0.36500001
-0.099261813 -0.089110509 0.36500001
-0.09830071 -0.089110509 0.36500001
-0.097339593 -0.089110509 0.36500001
-0.096378498 -0.089110509 0.36500001
-0.09541738 -0.089110509 0.36500001
-0.094456278 -0.089110509 0.36500001
-0.093495168 -0.089110509 0.36500001
-0.092534065 -0.089110509 0.36500001
-0.091572963 -0.089110509 0.36500001
-0.090611853 -0.089110509 0.36500001
-0.08965075 -0.089110509 0.36500001
-0.088689648 -0.089110509 0.36500001
-0.087728538 -0.089110509 0.36500001
-0.086767435 -0.089110509 0.36500001
-0.085806325 -0.089110509 0.36500001
-0.084845223 -0.089110509 0.36500001
-0.08388412 -0.089110509 0.36500001
-0.08292301 -0.089110509 0.36500001
-0.0819619 -0.089110509 0.36500001
-0.081000797 -0.089110509 0.36500001
-0.080039687 -0.089110509 0.36500001
-0.079078585 -0.089110509 0.36500001
-0.078117482 -0.089110509 0.36500001
-0.077156372 -0.089110509 0.36500001
-0.07619527 -0.089110509 0.36500001
-0.07523416 -0.089110509 0.36500001
-0.074273057 -0.089110509 0.36500001
-0.073311955 -0.089110509 0.36500001
-0.072350845 -0.089110509 0.36500001
-0.071389742 -0.089110509 0.36500001
-0.070428632 -0.089110509 0.36500001
-0.069467522 -0.089110509 0.36500001
-0.068506427 -0.089110509 0.36500001
-0.067545317 -0.089110509 0.36500001
-0.066584207 -0.089110509 0.36500001
