# .PCD v0.7 - Point Cloud Data file format
VERSION 0.7
FIELDS x y z
SIZE 4 4 4
TYPE F F F
COUNT 1 1 1
WIDTH 1734
HEIGHT 1
VIEWPOINT 0 0 0 1 0 0 0
POINTS 1734
DATA ascii
32.56649 25.827124 12.913677
32.466511 25.689037 12.950023
32.343254 25.569841 12.981397
32.200466 25.473154 13.006846
32.042488 25.401913 13.025598
31.874115 25.358284 13.037081
31.874115 24.884966 11.616973
32.64016 25.480444 11.374936
32.56649 25.334091 11.434422
32.466511 25.201813 11.488188
32.343254 25.087629 11.534599
32.200466 24.995007 11.572246
32.042488 24.926762 11.599985
31.874115 24.233316 10.269348
32.64016 24.792809 9.9528942
32.56649 24.655302 10.03067
32.466511 24.531015 10.100966
32.343254 24.423731 10.161648
32.200466 24.336706 10.210871
32.042488 24.272585 10.247138
32.64016 23.928366 8.6308565
32.56649 23.801977 8.7256365
32.466511 23.68774 8.8113012
32.343254 23.58913 8.8852491
32.200466 23.509142 8.9452324
32.042488 23.450205 8.9894285
31.874115 23.41411 9.0164957
32.64016 22.901413 7.4306865
32.56649 22.788231 7.5409021
32.466511 22.685932 7.6405191
32.343254 22.597628 7.72651
32.200466 22.525997 7.7962632
32.042488 22.473219 7.8476572
32.64016 21.72893 6.372232
32.56649 21.630827 6.4960618
32.466511 21.54216 6.6079822
32.343254 21.46562 6.7045951
32.200466 21.403534 6.7829628
32.042488 21.357788 6.8407059
31.874115 21.329773 6.8760681
31.874115 20.09911 6.0238914
32.64016 20.430305 5.4729972
32.56649 20.348907 5.6083918
32.466511 20.275335 5.7307668
32.343254 20.211826 5.8364029
32.200466 20.160313 5.9220901
32.042488 20.122355 5.9852266
31.874115 18.76926 5.3366952
32.64016 19.027021 4.7478528
32.56649 18.963671 4.8925748
32.466511 18.906412 5.0233788
32.343254 18.856985 5.1362915
32.200466 18.816893 5.2278814
32.042488 18.787352 5.2953663
45.4207 62.912334 16
45.724579 63.563999 16
45.596199 67.506073 16
3.0436106 66.658356 16
4.3974819 65.304482 16
4.3974819 67.506073 16
18.084984 51.616982 16
18.084984 59.131069 16
10.570895 59.131069 16
31.82852 37.319714 16
32.308918 36.159927 16
32.137966 48.751499 16
31.96434 2.441056 16
32.126247 2.3813286 16
54.26416 102.54791 16
53.951073 101.8765 16
53.971199 84.568573 16
53.526154 101.26965 16
53.002312 100.74581 16
52.395466 100.32089 16
51.724052 100.0078 16
51.008472 99.816063 16
50.270466 99.751495 16
49.532463 99.816063 16
45.850468 84.568573 16
48.816879 100.0078 16
48.145466 100.32089 16
46.589859 106.1265 16
48.580635 110.50648 16
47.886101 110.69258 16
47.234432 118.14117 16
47.886101 118.44504 16
45.596199 124.0015 16
48.580635 118.63114 16
51.700466 124.0015 16
45.850468 116.83542 16
46.137001 117.22031 16
45.850468 120.2316 16
46.645435 117.72874 16
53.951073 106.1265 16
53.421936 114.56881 16
53.359264 113.85251 16
47.53862 107.25719 16
48.145466 107.68211 16
49.296936 110.44381 16
47.53862 100.74581 16
47.014778 101.26965 16
46.589859 101.8765 16
46.276772 105.45509 16
47.234432 110.99645 16
46.085033 104.73951 16
46.276772 102.54791 16
46.085033 103.2635 16
46.020466 104.0015 16
46.645435 111.40887 16
46.137001 111.91731 16
45.850468 112.30221 16
52.456867 117.22031 16
52.869289 116.63131 16
53.700466 123.46561 16
53.173164 115.97964 16
53.359264 115.2851 16
53.173164 113.15798 16
52.869289 112.50631 16
52.456867 111.91731 16
47.014778 106.73335 16
50.707767 110.69258 16
51.724052 107.99519 16
51.359436 110.99645 16
52.395466 107.68211 16
53.002312 107.25719 16
51.948433 111.40887 16
53.526154 106.73335 16
49.296936 118.69382 16
50.013233 118.63114 16
52.395058 123.94073 16
50.707767 118.44504 16
53.068546 123.76027 16
51.359436 118.14117 16
51.948433 117.72874 16
48.816879 107.99519 16
49.532463 108.18694 16
50.013233 110.50648 16
50.270466 108.2515 16
51.008472 108.18694 16
45.061199 124.0015 16
34.812767 120.42426 16
4.3974819 119.2515 16
4.5504646 119.2502 16
4.5504646 120.24905 16
32.137966 124.0015 16
18.084984 124.0015 16
16.59008 120.45921 16
4.7004671 124.0015 16
4.0747299 123.95226 16
3.464397 123.80573 16
2.8845034 123.56552 16
2.3493245 123.23756 16
1.8720403 122.82993 16
1.4643967 122.35264 16
1.1364408 121.81746 16
0.70783126 120.24414 16
1.7004646 119.2515 16
0.74971092 120.62724 16
0.89624155 121.23757 16
54.271618 123.06568 16
54.455898 103.2635 16
55.700466 84.568573 16
54.520466 104.0015 16
55.700466 120.0015 16
54.455898 104.73951 16
54.26416 105.45509 16
55.639698 120.69609 16
55.459236 121.36958 16
55.164566 122.0015 16
54.764645 122.57265 16
45.061199 0.001501292 16
42.154053 26.007807 16
41.438469 25.816067 16
40.700466 25.751499 16
38.575466 26.320892 16
37.96862 26.745811 16
37.019859 27.876499 16
36.706772 28.547915 16
32.700466 28.813999 16
32.624939 1.8577502 16
35.398354 0.001501292 16
32.605293 1.9022785 16
32.518616 2.0515063 16
37.444778 27.269651 16
44.69416 28.547915 16
44.381073 27.876499 16
43.956154 27.269651 16
32.407574 2.183605 16
32.275471 2.2946484 16
43.432312 26.745811 16
42.825466 26.320892 16
39.96246 25.816067 16
39.24688 26.007807 16
28.700466 25.2265 16
31.794575 2.4720616 16
31.700466 2.4764986 16
39.96246 34.186932 16
40.700466 34.251499 16
45.061199 48.751499 16
38.575466 33.682106 16
39.24688 33.995193 16
36.515034 29.263494 16
36.450466 30.001501 16
32.700466 33.68779 16
44.381073 32.126499 16
44.69416 31.455086 16
41.438469 34.186932 16
42.154053 33.995193 16
42.825466 33.682106 16
44.885899 30.739506 16
44.950466 30.001501 16
45.061199 28.813999 16
44.885899 29.263494 16
36.515034 30.739506 16
36.706772 31.455086 16
32.601974 34.939266 16
37.019859 32.126499 16
37.444778 32.733349 16
37.96862 33.257187 16
43.432312 33.257187 16
43.956154 32.733349 16
20.950466 48.751499 16
30.357321 39.344646 16
31.172602 38.390076 16
25.762966 57.929146 16
25.1113 57.625267 16
24.416763 57.439167 16
23.700464 57.376499 16
22.984165 57.439167 16
22.289635 57.625267 16
21.637964 57.929146 16
21.048967 58.341568 16
32.137966 59.131069 16
26.860399 58.850002 16
26.351965 58.341568 16
15.600189 67.867493 16
16.025106 67.260643 16
18.084984 67.506073 16
16.338192 66.589226 16
16.338192 63.682056 16
16.025106 63.010643 16
16.529932 65.873642 16
16.5945 65.135643 16
16.529932 64.397636 16
15.600189 62.403793 16
15.076346 61.879951 16
14.469501 61.455032 16
8.1590672 65.873642 16
8.0945005 65.135643 16
8.1590672 64.397636 16
8.3508043 63.682056 16
11.606496 60.950207 16
10.890912 61.141949 16
10.2195 61.455032 16
13.798084 61.141949 16
13.082504 60.950207 16
12.344499 60.885643 16
9.6126537 61.879951 16
9.0888109 62.403793 16
8.6638927 63.010643 16
3.5504661 69.871399 16
1.5724152 68.683289 16
2.2283309 67.61293 16
0.70046633 72.315208 16
0.79895926 71.063736 16
1.092013 69.843071 16
0.70046633 84.568573 16
3.5504661 84.568573 16
0.70046633 93.751503 16
3.5504661 94.751503 16
1.7004646 94.751503 16
8.3508043 66.589226 16
8.6638927 67.260643 16
9.0888109 67.867493 16
9.6126537 68.391327 16
10.2195 68.816254 16
10.890912 69.129333 16
11.606496 69.321075 16
12.344499 69.385643 16
16.59008 69.643791 16
13.082504 69.321075 16
13.798084 69.129333 16
14.469501 68.816254 16
15.076346 68.391327 16
32.137966 67.506073 16
34.812767 69.678734 16
45.4207 37.412334 16
45.724579 38.063999 16
45.596199 48.751499 16
46.137001 38.653 16
46.645435 39.161434 16
47.234432 39.573856 16
47.886101 39.877731 16
48.580635 40.063831 16
49.296936 40.126499 16
53.971199 48.751499 16
50.013233 40.063831 16
50.707767 39.877731 16
51.359436 39.573856 16
51.948433 39.161434 16
45.596199 28.813999 16
49.296936 31.876501 16
48.580635 31.939167 16
52.456867 38.653 16
52.869289 38.063999 16
53.173164 37.412334 16
53.359264 36.7178 16
53.421936 36.001499 16
53.971199 28.813999 16
53.359264 35.285202 16
50.013233 31.939167 16
50.707767 32.125267 16
47.886101 32.125267 16
47.234432 32.429146 16
46.645435 32.841568 16
53.173164 34.590668 16
52.869289 33.938999 16
52.456867 33.350002 16
51.948433 32.841568 16
51.359436 32.429146 16
46.137001 33.350002 16
45.724579 33.938999 16
45.4207 34.590668 16
45.2346 36.7178 16
45.171936 36.001499 16
45.2346 35.285202 16
22.984165 65.563835 16
23.700464 65.626503 16
24.416763 65.563835 16
25.1113 65.377731 16
25.762966 65.073853 16
20.540531 58.850002 16
20.128113 59.438999 16
19.824232 60.090668 16
19.824232 62.912334 16
20.128113 63.563999 16
20.540531 64.153 16
21.048967 64.66143 16
26.351965 64.66143 16
26.860399 64.153 16
27.27282 63.563999 16
27.762798 60.785202 16
27.576698 60.090668 16
27.27282 59.438999 16
21.637964 65.073853 16
22.289635 65.377731 16
27.576698 62.912334 16
27.762798 62.2178 16
27.825466 61.501499 16
19.638132 60.785202 16
19.575466 61.501499 16
19.638132 62.2178 16
46.137001 64.153 16
46.645435 64.66143 16
47.234432 65.073853 16
50.013233 65.563835 16
53.971199 67.506073 16
49.296936 65.626503 16
50.707767 65.377731 16
51.359436 65.073853 16
51.948433 64.66143 16
47.886101 65.377731 16
48.580635 65.563835 16
52.456867 64.153 16
52.869289 63.563999 16
53.173164 62.912334 16
53.359264 62.2178 16
53.421936 61.501499 16
53.971199 59.131069 16
53.359264 60.785202 16
53.173164 60.090668 16
45.724579 59.438999 16
45.4207 60.090668 16
45.061199 59.131069 16
45.2346 62.2178 16
45.061199 67.506073 16
45.171936 61.501499 16
45.2346 60.785202 16
45.850468 69.871399 16
48.580635 57.439167 16
47.886101 57.625267 16
47.234432 57.929146 16
46.645435 58.341568 16
46.137001 58.850002 16
45.596199 59.131069 16
52.869289 59.438999 16
52.456867 58.850002 16
51.948433 58.341568 16
51.359436 57.929146 16
50.707767 57.625267 16
50.013233 57.439167 16
49.296936 57.376499 16
55.700466 67.506073 16
55.700466 59.131069 16
55.700466 48.751499 16
55.700466 28.813999 16
45.596199 0.001501292 16
52.700466 0.001501292 16
55.700466 3.0014999 16
37.300465 19.758354 12.593146
37.300465 19.758354 15.093146
37.300465 19.367647 12.558964
37.300465 18.933525 15.020984
37.300465 18.988808 12.457455
37.300465 18.133759 14.806686
37.300465 18.633354 12.291703
37.300465 17.383356 14.456767
37.300465 18.312082 12.066747
37.300465 16.705114 13.981857
37.300465 18.034754 11.789419
37.300465 16.119644 13.396388
37.300465 17.809797 11.468146
37.300465 15.644732 12.718146
37.300465 17.644045 11.112692
37.300465 15.294812 11.967742
37.300465 17.542538 10.733855
37.300465 15.080519 11.167975
37.300465 17.508354 10.343146
37.300465 15.008352 10.343146
37.300465 17.542538 9.9524384
37.300465 15.080519 9.5183182
37.300465 17.644045 9.5736008
37.300465 15.294812 8.7185507
37.300465 17.809797 9.2181463
37.300465 15.644732 7.9681463
37.300465 18.034754 8.8968744
37.300465 16.119644 7.2899051
37.300465 18.312082 8.6195469
37.300465 16.705114 6.7044358
37.300465 18.633354 8.3945894
37.300465 17.383356 6.2295256
37.300465 18.988808 8.228838
37.300465 18.133759 5.8796062
37.300465 19.367647 8.1273289
37.300465 18.933525 5.6653099
37.300465 19.758354 8.0931463
37.300465 19.758354 5.5931463
37.300465 20.149063 8.1273289
37.300465 20.583183 5.6653099
37.300465 20.527899 8.228838
37.300465 21.38295 5.8796062
37.300465 20.883354 8.3945894
37.300465 22.133354 6.2295256
37.300465 21.204626 8.6195469
37.300465 22.811596 6.7044358
37.300465 21.481953 8.8968744
37.300465 23.397066 7.2899051
37.300465 21.706911 9.2181463
37.300465 23.871975 7.9681463
37.300465 21.872662 9.5736008
37.300465 24.221893 8.7185507
37.300465 21.974173 9.9524384
37.300465 24.436192 9.5183182
37.300465 22.008354 10.343146
37.300465 24.508356 10.343146
37.300465 21.974173 10.733855
37.300465 24.436192 11.167975
37.300465 21.872662 11.112692
37.300465 24.221893 11.967742
37.300465 21.706911 11.468146
37.300465 23.871975 12.718146
37.300465 21.481953 11.789419
37.300465 23.397066 13.396388
37.300465 21.204626 12.066747
37.300465 22.811596 13.981857
37.300465 20.883354 12.291703
37.300465 22.133354 14.456767
37.300465 20.527899 12.457455
37.300465 21.38295 14.806686
37.300465 20.149063 12.558964
37.300465 20.583183 15.020984
37.300465 9.2141924 12.457455
37.300465 10.06924 14.806686
37.300465 8.8353529 12.558964
37.300465 9.2694759 15.020984
37.300465 8.4446449 12.593146
37.300465 8.4446449 15.093146
37.300465 8.053936 12.558964
37.300465 7.6198168 15.020984
37.300465 7.6751003 12.457455
37.300465 6.8200493 14.806686
37.300465 7.319644 12.291703
37.300465 6.0696454 14.456767
37.300465 6.9983749 12.066747
37.300465 5.3914042 13.981857
37.300465 6.721046 11.789419
37.300465 4.8059335 13.396388
37.300465 6.4960904 11.468146
37.300465 4.3310261 12.718146
37.300465 6.3303375 11.112692
37.300465 3.981106 11.967742
37.300465 6.228827 10.733855
37.300465 3.7668087 11.167975
37.300465 6.1946473 10.343146
37.300465 3.6946461 10.343146
37.300465 6.228827 9.9524384
37.300465 3.7668087 9.5183182
37.300465 6.3303375 9.5736008
37.300465 3.981106 8.7185507
37.300465 6.4960904 9.2181463
37.300465 4.3310261 7.9681463
37.300465 6.721046 8.8968744
37.300465 4.8059335 7.2899051
37.300465 6.9983749 8.6195469
37.300465 5.3914042 6.7044358
37.300465 7.319644 8.3945894
37.300465 6.0696454 6.2295256
37.300465 7.6751003 8.228838
37.300465 6.8200493 5.8796062
37.300465 8.053936 8.1273289
37.300465 7.6198168 5.6653099
37.300465 8.4446449 8.0931463
37.300465 8.4446449 5.5931463
37.300465 8.8353529 8.1273289
37.300465 9.2694759 5.6653099
37.300465 9.2141924 8.228838
37.300465 10.06924 5.8796062
37.300465 9.5696449 8.3945894
37.300465 10.819648 6.2295256
37.300465 9.8909178 8.6195469
37.300465 11.497889 6.7044358
37.300465 10.168247 8.8968744
37.300465 12.083355 7.2899051
37.300465 10.393202 9.2181463
37.300465 12.558267 7.9681463
37.300465 10.558955 9.5736008
37.300465 12.908187 8.7185507
37.300465 10.660462 9.9524384
37.300465 13.122484 9.5183182
37.300465 10.694645 10.343146
37.300465 13.194647 10.343146
37.300465 10.660462 10.733855
37.300465 13.122484 11.167975
37.300465 10.558955 11.112692
37.300465 12.908187 11.967742
37.300465 10.393202 11.468146
37.300465 12.558267 12.718146
37.300465 10.168247 11.789419
37.300465 12.083355 13.396388
37.300465 9.8909178 12.066747
37.300465 11.497889 13.981857
37.300465 9.5696449 12.291703
37.300465 10.819648 14.456767
51.300465 81.05294 9.125001
51.300465 78.887878 10.375001
51.300465 80.887192 8.7695465
51.300465 78.537956 9.6245966
51.300465 80.785683 8.3907089
51.300465 78.323662 8.8248291
51.300465 80.751503 8
51.300465 78.251503 8
51.300465 80.785683 7.609292
51.300465 78.323662 7.1751719
51.300465 80.887192 7.2304549
51.300465 78.537956 6.3754048
51.300465 81.05294 6.875001
51.300465 78.887878 5.625001
51.300465 81.277901 6.5537291
51.300465 79.362793 4.9467597
51.300465 81.555229 6.2764006
51.300465 79.948257 4.3612895
51.300465 81.876503 6.0514436
51.300465 80.626495 3.8863802
51.300465 82.231956 5.8856921
51.300465 81.3769 3.5364609
51.300465 82.610794 5.7841835
51.300465 82.176674 3.3221636
51.300465 83.001503 5.7500005
51.300465 83.001503 3.250001
51.300465 83.392204 5.7841835
51.300465 83.826332 3.3221636
51.300465 83.771049 5.8856921
51.300465 84.626099 3.5364609
51.300465 84.126495 6.0514436
51.300465 85.376503 3.8863802
51.300465 84.447769 6.2764006
51.300465 86.054741 4.3612895
51.300465 84.725098 6.5537291
51.300465 86.640213 4.9467597
51.300465 84.950058 6.875001
51.300465 87.11512 5.625001
51.300465 85.115807 7.2304549
51.300465 87.465042 6.3754048
51.300465 85.217316 7.609292
51.300465 87.679337 7.1751719
51.300465 85.251495 8
51.300465 87.751503 8
51.300465 85.217316 8.3907089
51.300465 87.679337 8.8248291
51.300465 85.115807 8.7695465
51.300465 87.465042 9.6245966
51.300465 84.950058 9.125001
51.300465 87.11512 10.375001
51.300465 84.725098 9.4462729
51.300465 86.640213 11.053242
51.300465 84.447769 9.7236013
51.300465 86.054741 11.638712
51.300465 84.126495 9.9485579
51.300465 85.376503 12.113622
51.300465 83.771049 10.114309
51.300465 84.626099 12.463541
51.300465 83.392204 10.215818
51.300465 83.826332 12.677837
51.300465 83.001503 10.250001
51.300465 83.001503 12.750001
51.300465 82.610794 10.215818
51.300465 82.176674 12.677837
51.300465 82.231956 10.114309
51.300465 81.3769 12.463541
51.300465 81.876503 9.9485579
51.300465 80.626495 12.113622
51.300465 81.555229 9.7236013
51.300465 79.948257 11.638712
51.300465 81.277901 9.4462729
51.300465 79.362793 11.053242
30.450464 93.751503 3.8500009
30.450464 93.751503 0
30.276817 93.766693 3.8500009
30.276817 93.766693 0
30.108446 93.811806 3.8500009
30.108446 93.811806 0
29.950466 93.885475 3.8500009
29.950466 93.885475 0
29.80768 93.985458 3.8500009
29.80768 93.985458 0
29.684422 94.108711 3.8500009
29.684422 94.108711 0
29.584442 94.251495 3.8500009
29.584442 94.251495 0
29.510775 94.409477 3.8500009
29.510775 94.409477 0
29.465658 94.57785 3.8500009
29.465658 94.57785 0
29.450466 94.751503 3.8500009
29.450466 94.751503 0
34.950466 93.751503 3.8500009
34.950466 93.751503 0
35.950466 94.751503 3.8500009
35.950466 94.751503 0
35.935272 94.57785 3.8500009
35.935272 94.57785 0
35.89016 94.409477 3.8500009
35.89016 94.409477 0
35.81649 94.251495 3.8500009
35.81649 94.251495 0
35.716511 94.108711 3.8500009
35.716511 94.108711 0
35.593254 93.985458 3.8500009
35.593254 93.985458 0
35.450466 93.885475 3.8500009
35.450466 93.885475 0
35.292484 93.811806 3.8500009
35.292484 93.811806 0
35.124115 93.766693 3.8500009
35.124115 93.766693 0
35.950466 105.2515 0
35.950466 105.2515 3.8500009
34.950466 106.2515 3.8500009
34.950466 106.2515 0
35.124115 106.23631 3.8500009
35.124115 106.23631 0
35.292484 106.19119 3.8500009
35.292484 106.19119 0
35.450466 106.11752 3.8500009
35.450466 106.11752 0
35.593254 106.01755 3.8500009
35.593254 106.01755 0
35.716511 105.89429 3.8500009
35.716511 105.89429 0
35.81649 105.7515 3.8500009
35.81649 105.7515 0
35.89016 105.59352 3.8500009
35.89016 105.59352 0
35.935272 105.42515 3.8500009
35.935272 105.42515 0
30.450464 106.2515 0
30.450464 106.2515 3.8500009
29.450466 105.2515 3.8500009
29.450466 105.2515 0
29.465658 105.42515 3.8500009
29.465658 105.42515 0
29.510775 105.59352 3.8500009
29.510775 105.59352 0
29.584442 105.7515 3.8500009
29.584442 105.7515 0
29.684422 105.89429 3.8500009
29.684422 105.89429 0
29.80768 106.01755 3.8500009
29.80768 106.01755 0
29.950466 106.11752 3.8500009
29.950466 106.11752 0
30.108446 106.19119 3.8500009
30.108446 106.19119 0
30.276817 106.23631 3.8500009
30.276817 106.23631 0
4.7004671 121.0015 0
52.700466 8.0014992 0
51.700466 121.0015 0
4.0576792 120.76754 0
4.2004662 120.86753 0
3.700465 72.315208 0
3.7620254 71.533035 0
4.5268164 120.98631 0
4.3584442 120.94119 0
3.8344412 120.5015 0
3.9344206 120.64429 0
32.478642 41.465965 0
5.1649323 68.779678 0
4.6553798 69.376282 0
33.599651 40.153427 0
3.700465 120.0015 0
3.7156568 120.17515 0
3.7607737 120.34352 0
4.2454338 70.045258 0
3.945183 70.770126 0
35.700466 8.0014992 0
35.700466 33.68779 0
51.874115 120.98631 0
52.042484 120.94119 0
52.200466 120.86753 0
52.343254 120.76754 0
35.565037 35.408569 0
35.162086 37.086979 0
34.501537 38.681686 0
52.685272 120.17515 0
52.700466 120.0015 0
52.466511 120.64429 0
52.56649 120.5015 0
52.64016 120.34352 0
4.7004671 124.0015 3.0000005
51.700466 124.0015 3.0000005
32.700466 8.0014992 3.0000005
35.700466 6.6123157 0.12153946
32.700466 7.1332603 3.0759621
35.700466 5.2653403 0.48245955
32.700466 6.2914004 3.3015375
35.700466 4.0014982 1.0717977
32.700466 5.5015011 3.6698737
35.700466 2.8591976 1.8716455
32.700466 4.7875605 4.1697788
35.700466 1.873143 2.8576999
32.700466 4.1712785 4.7860632
35.700466 1.0732971 4.0000005
32.700466 3.6713741 5.500001
35.700466 0.48395991 5.2638397
32.700466 3.3030362 6.2899003
35.700466 0.12303889 6.6108155
32.700466 3.0774622 7.1317601
35.700466 0.001501292 8
32.700466 3.0014999 8
32.700466 33.68779 3.0000005
55.700466 120.0015 3.0000005
55.700466 8.0014992 3.0000005
55.700466 83.001503 3.250001
55.700466 83.826332 3.3221636
55.700466 84.626099 3.5364609
55.700466 85.376503 3.8863802
55.700466 86.054741 4.3612895
55.700466 86.640213 4.9467597
55.700466 87.11512 5.625001
55.700466 87.465042 6.3754048
55.700466 87.679337 7.1751719
55.700466 87.751503 8
55.700466 87.679337 8.8248291
55.700466 87.465042 9.6245966
55.700466 87.11512 10.375001
55.700466 86.640213 11.053242
55.700466 86.054741 11.638712
55.700466 85.376503 12.113622
55.700466 84.626099 12.463541
55.700466 83.826332 12.677837
55.700466 83.001503 12.750001
55.700466 82.176674 12.677837
55.700466 81.3769 12.463541
55.700466 80.626495 12.113622
55.700466 79.948257 11.638712
55.700466 79.362793 11.053242
55.700466 78.887878 10.375001
55.700466 78.537956 9.6245966
55.700466 78.323662 8.8248291
55.700466 78.251503 8
55.700466 78.323662 7.1751719
55.700466 78.537956 6.3754048
55.700466 78.887878 5.625001
55.700466 79.362793 4.9467597
55.700466 79.948257 4.3612895
55.700466 80.626495 3.8863802
55.700466 81.3769 3.5364609
55.700466 82.176674 3.3221636
55.700466 19.758354 5.5931463
55.700466 20.583183 5.6653099
55.700466 21.38295 5.8796062
55.700466 22.133354 6.2295256
55.700466 22.811596 6.7044358
55.700466 23.397066 7.2899051
55.700466 23.871975 7.9681463
55.700466 24.221893 8.7185507
55.700466 24.436192 9.5183182
55.700466 24.508356 10.343146
55.700466 24.436192 11.167975
55.700466 24.221893 11.967742
55.700466 23.871975 12.718146
55.700466 23.397066 13.396388
55.700466 22.811596 13.981857
55.700466 22.133354 14.456767
55.700466 21.38295 14.806686
55.700466 20.583183 15.020984
55.700466 19.758354 15.093146
55.700466 18.933525 15.020984
55.700466 18.133759 14.806686
55.700466 17.383356 14.456767
55.700466 16.705114 13.981857
55.700466 16.119644 13.396388
55.700466 15.644732 12.718146
55.700466 15.294812 11.967742
55.700466 15.080519 11.167975
55.700466 15.008352 10.343146
55.700466 15.080519 9.5183182
55.700466 15.294812 8.7185507
55.700466 15.644732 7.9681463
55.700466 16.119644 7.2899051
55.700466 16.705114 6.7044358
55.700466 17.383356 6.2295256
55.700466 18.133759 5.8796062
55.700466 18.933525 5.6653099
55.700466 8.4446449 5.5931463
55.700466 9.2694759 5.6653099
55.700466 10.06924 5.8796062
55.700466 10.819648 6.2295256
55.700466 11.497889 6.7044358
55.700466 12.083355 7.2899051
55.700466 12.558267 7.9681463
55.700466 12.908187 8.7185507
55.700466 13.122484 9.5183182
55.700466 13.194647 10.343146
55.700466 13.122484 11.167975
55.700466 12.908187 11.967742
55.700466 12.558267 12.718146
55.700466 12.083355 13.396388
55.700466 11.497889 13.981857
55.700466 10.819648 14.456767
55.700466 10.06924 14.806686
55.700466 9.2694759 15.020984
55.700466 8.4446449 15.093146
55.700466 7.6198168 15.020984
55.700466 6.8200493 14.806686
55.700466 6.0696454 14.456767
55.700466 5.3914042 13.981857
55.700466 4.8059335 13.396388
55.700466 4.3310261 12.718146
55.700466 3.981106 11.967742
55.700466 3.7668087 11.167975
55.700466 3.6946461 10.343146
55.700466 3.7668087 9.5183182
55.700466 3.981106 8.7185507
55.700466 4.3310261 7.9681463
55.700466 4.8059335 7.2899051
55.700466 5.3914042 6.7044358
55.700466 6.0696454 6.2295256
55.700466 6.8200493 5.8796062
55.700466 7.6198168 5.6653099
52.700466 0.001501292 8
52.700466 0.12303889 6.6108155
52.700466 0.48395991 5.2638397
52.700466 1.0732971 4.0000005
52.700466 1.873143 2.8576999
52.700466 2.8591976 1.8716455
52.700466 4.0014982 1.0717977
52.700466 5.2653403 0.48245955
52.700466 6.6123157 0.12153946
3.0436106 66.658356 3.0000005
30.357321 39.344646 3.0000005
2.2283309 67.61293 3.0000005
1.5724152 68.683289 3.0000005
1.092013 69.843071 3.0000005
0.79895926 71.063736 3.0000005
0.70046633 72.315208 3.0000005
28.700466 19.758354 8.0931463
28.700466 20.149063 8.1273289
28.700466 20.527899 8.228838
28.700466 20.883354 8.3945894
28.700466 21.204626 8.6195469
28.700466 21.481953 8.8968744
28.700466 21.706911 9.2181463
28.700466 21.872662 9.5736008
28.700466 21.974173 9.9524384
28.700466 22.008354 10.343146
28.700466 21.974173 10.733855
28.700466 21.872662 11.112692
28.700466 21.706911 11.468146
28.700466 21.481953 11.789419
28.700466 21.204626 12.066747
28.700466 20.883354 12.291703
28.700466 20.527899 12.457455
28.700466 20.149063 12.558964
28.700466 19.758354 12.593146
28.700466 19.367647 12.558964
28.700466 18.988808 12.457455
28.700466 18.633354 12.291703
28.700466 18.312082 12.066747
28.700466 18.034754 11.789419
28.700466 17.809797 11.468146
28.700466 17.644045 11.112692
28.700466 17.542538 10.733855
28.700466 17.508354 10.343146
28.700466 17.542538 9.9524384
28.700466 17.644045 9.5736008
28.700466 17.809797 9.2181463
28.700466 18.034754 8.8968744
28.700466 18.312082 8.6195469
28.700466 18.633354 8.3945894
28.700466 18.988808 8.228838
28.700466 19.367647 8.1273289
28.700466 8.4446449 8.0931463
28.700466 8.8353529 8.1273289
28.700466 9.2141924 8.228838
28.700466 9.5696449 8.3945894
28.700466 9.8909178 8.6195469
28.700466 10.168247 8.8968744
28.700466 10.393202 9.2181463
28.700466 10.558955 9.5736008
28.700466 10.660462 9.9524384
28.700466 10.694645 10.343146
28.700466 10.660462 10.733855
28.700466 10.558955 11.112692
28.700466 10.393202 11.468146
28.700466 10.168247 11.789419
28.700466 9.8909178 12.066747
28.700466 9.5696449 12.291703
28.700466 9.2141924 12.457455
28.700466 8.8353529 12.558964
28.700466 8.4446449 12.593146
28.700466 8.053936 12.558964
28.700466 7.6751003 12.457455
28.700466 7.319644 12.291703
28.700466 6.9983749 12.066747
28.700466 6.721046 11.789419
28.700466 6.4960904 11.468146
28.700466 6.3303375 11.112692
28.700466 6.228827 10.733855
28.700466 6.1946473 10.343146
28.700466 6.228827 9.9524384
28.700466 6.3303375 9.5736008
28.700466 6.4960904 9.2181463
28.700466 6.721046 8.8968744
28.700466 6.9983749 8.6195469
28.700466 7.319644 8.3945894
28.700466 7.6751003 8.228838
28.700466 8.053936 8.1273289
32.700466 10.17841 4.0000005
32.700466 4.5089722 7.791831
32.700466 5.6517272 6.619597
32.700466 8.3418636 4.765358
32.700466 6.9365578 5.6050858
32.700466 9.8440084 4.1145301
32.700466 3.5275073 9.1020784
32.700466 3.0014999 9.9849672
28.700466 24.730242 12.714349
28.700466 25.101736 14.338542
28.700466 24.120346 11.163851
28.700466 21.105339 7.3563995
28.700466 22.245123 8.420619
28.700466 23.285734 9.7218266
31.700466 10.849587 4.8390999
31.700466 10.181237 5.055954
31.362568 9.9998598 5.122632
31.700466 9.1744852 5.4707489
30.947697 9.1744852 5.4707489
31.700466 8.79807 5.65523
30.431887 8.3393307 5.9035645
31.700466 7.5040793 6.4284458
29.837297 7.5419025 6.4024839
31.700466 6.3210168 7.3625984
31.700466 6.0808325 7.5851603
31.700466 5.2687788 8.4419832
31.700466 4.8294773 8.987855
31.700466 4.3650532 9.6484489
31.700466 3.8205497 10.573892
31.700466 3.6250391 10.961711
31.700466 3.0611753 12.359687
31.700466 2.6829503 13.818872
31.700466 2.4967155 15.314732
31.700466 2.6284754 14.126408
4.5504646 108.56355 3.8500009
4.5504646 107.0015 3.7500012
4.5504646 105.43945 3.8500009
44.850468 70.854095 11.000001
44.850468 70.854095 3.8500009
34.803082 70.678719 11.000001
34.803082 70.678719 3.8500009
44.850468 83.001503 5.7500005
44.850468 83.392204 5.7841835
44.850468 83.771049 5.8856921
44.850468 84.126495 6.0514436
44.850468 84.447769 6.2764006
44.850468 84.725098 6.5537291
44.850468 84.950058 6.875001
44.850468 85.115807 7.2304549
44.850468 85.217316 7.609292
44.850468 85.251495 8
44.850468 85.217316 8.3907089
44.850468 85.115807 8.7695465
44.850468 84.950058 9.125001
44.850468 84.725098 9.4462729
44.850468 84.447769 9.7236013
44.850468 84.126495 9.9485579
44.850468 83.771049 10.114309
44.850468 83.392204 10.215818
44.850468 83.001503 10.250001
44.850468 82.610794 10.215818
44.850468 82.231956 10.114309
44.850468 81.876503 9.9485579
44.850468 81.555229 9.7236013
44.850468 81.277901 9.4462729
44.850468 81.05294 9.125001
44.850468 80.887192 8.7695465
44.850468 80.785683 8.3907089
44.850468 80.751503 8
44.850468 80.785683 7.609292
44.850468 80.887192 7.2304549
44.850468 81.05294 6.875001
44.850468 81.277901 6.5537291
44.850468 81.555229 6.2764006
44.850468 81.876503 6.0514436
44.850468 82.231956 5.8856921
44.850468 82.610794 5.7841835
44.850468 119.2489 11.000001
44.850468 119.2489 3.8500009
34.803082 119.42429 11.000001
34.803082 119.42429 3.8500009
4.5504646 70.854095 3.8500009
16.597849 70.643806 3.8500009
4.5504646 119.2489 3.8500009
16.597849 119.45919 3.8500009
16.597849 70.643806 11.000001
4.5504646 100.93213 5.3592649
4.5504646 99.193054 6.561213
4.5504646 95.818367 11.000001
4.5504646 70.854095 11.000001
4.5504646 96.457413 9.7642431
4.5504646 97.686523 8.0442629
4.5504646 104.89537 3.9324117
4.5504646 102.85196 4.4742117
4.5504646 119.03452 13.704579
4.5504646 119.2489 11.000001
4.5504646 118.46069 11.669933
4.5504646 117.54559 9.7642431
4.5504646 116.31647 8.0442629
4.5504646 109.10764 3.9324117
4.5504646 111.15104 4.4742117
4.5504646 119.24999 15.807586
4.5504646 119.2489 15.747849
4.5504646 114.80994 6.561213
4.5504646 113.07087 5.3592649
0.70046633 96.85141 7.4830651
0.70046633 98.484566 5.8499117
0.70046633 93.952797 13.699162
0.70046633 95.526665 9.375001
0.70046633 94.550575 11.468234
0.70046633 100.3765 4.5251641
0.70046633 102.46973 3.5490739
0.70046633 104.43976 3.0000005
0.80034882 105.85321 2.9001162
0.82546473 107.0015 2.8750012
0.80034882 108.14979 2.9001162
0.72500479 109.29807 2.9754629
0.70046633 109.56324 3.0000005
0.70046633 120.0015 3.0000005
1.7004646 119.24999 15.807586
1.7004646 96.457413 9.7642431
1.7004646 96.392685 9.875001
1.7004646 95.542313 11.669933
4.4164805 95.542313 11.669933
1.7004646 95.490265 11.810254
4.0095487 94.968483 13.704579
1.7004646 94.968483 13.704579
1.7004646 94.937607 13.87281
3.5889485 94.753014 15.807586
1.7004646 97.617455 8.1258526
1.7004646 97.686523 8.0442629
1.7004646 99.12735 6.6159563
1.7004646 99.193054 6.561213
1.7004646 100.8765 5.3911901
1.7004646 100.93213 5.3592649
1.7004646 102.81175 4.4887662
1.7004646 102.85196 4.4742117
1.7004646 104.87431 3.9361055
1.7004646 107.0015 3.7500012
1.7004646 109.12869 3.9361055
1.7004646 111.19125 4.4887662
1.7004646 111.15104 4.4742117
1.7004646 113.1265 5.3911901
1.7004646 113.07087 5.3592649
1.7004646 114.87565 6.6159563
1.7004646 114.80994 6.561213
1.7004646 116.38554 8.1258526
1.7004646 116.31647 8.0442629
1.7004646 117.61031 9.875001
1.7004646 117.54559 9.7642431
1.7004646 118.51273 11.810254
1.7004646 118.46069 11.669933
1.7004646 119.0654 13.87281
1.7004646 119.03452 13.704579
52.395058 123.94073 3.0000005
53.068546 123.76027 3.0000005
53.700466 123.46561 3.0000005
54.271618 123.06568 3.0000005
54.764645 122.57265 3.0000005
55.164566 122.0015 3.0000005
55.459236 121.36958 3.0000005
55.639698 120.69609 3.0000005
35.700466 0.001501292 9.9849672
34.200466 1.5015006 9.9849672
32.649746 11.174109 4.0425611
32.665455 11.012673 4.0293775
32.665024 9.9329948 4.3629465
32.698799 10.363713 4.0013976
32.697517 2.7939863 10.559566
32.696026 3.6063268 9.1534967
31.794575 2.4922862 15.31447
32.605293 1.9234941 15.280883
32.633224 1.9279979 14.508911
32.605293 2.1189265 13.711135
32.644093 2.0260029 13.693016
32.660122 2.1873376 12.771564
32.605293 2.5158377 12.179873
32.663883 2.2289605 12.573997
32.665024 2.3620725 12.129172
32.672646 2.3340397 12.11975
32.667877 2.2753515 12.36646
32.687439 2.5543532 11.30771
32.665024 2.9616394 10.642672
32.694172 2.6950798 10.855356
32.696098 10.477934 4.0036645
32.696026 9.8757448 4.203126
32.696026 8.384798 4.8491025
32.696026 6.9899669 5.6825709
32.696026 5.7147145 6.6895194
32.696026 4.5804753 7.8530154
32.508827 11.932105 4.1608047
32.519348 11.898801 4.1519747
32.518616 11.539973 4.2254114
32.556969 11.756342 4.1204085
32.41135 12.129147 4.242599
32.435837 12.096829 4.2220521
32.407574 11.568058 4.3544936
32.460129 12.053978 4.2016692
32.282162 12.148421 4.3510013
32.294472 12.155951 4.340672
32.311878 12.16362 4.326066
32.328217 12.167458 4.3123541
32.336948 12.168102 4.3050303
32.352757 12.16666 4.2917652
32.368103 12.161896 4.2788873
32.375103 12.158573 4.2730112
32.391884 12.147561 4.2589326
32.407703 12.133069 4.2456565
32.125565 11.933591 4.4824004
32.17841 12.02682 4.4380555
32.275471 11.591661 4.4629984
32.223614 12.091335 4.4001274
32.257107 12.128078 4.3720231
32.126247 10.149143 4.9663558
31.963882 11.568792 4.6180673
32.126247 11.610087 4.5476947
31.968996 11.581614 4.6137776
32.116074 11.915136 4.4903655
31.790421 11.105061 4.7636209
31.794575 10.179739 5.0517759
31.794575 8.7960472 5.6512814
31.794575 5.2654037 8.4390974
31.794575 6.3180475 7.3593016
31.794575 7.5015612 6.4247913
31.794575 4.3613353 9.6460238
31.794575 3.621038 10.959786
31.794575 2.6785879 13.81804
31.794575 3.056962 12.358297
32.665024 8.4622431 5.0001712
32.665024 7.0863142 5.8223486
32.665024 5.8283358 6.8156552
32.665024 4.7094636 7.9633884
32.665024 3.7485137 9.2462502
32.605293 3.1075516 10.712842
32.605293 3.8841181 9.3347111
32.605293 4.8324838 8.0686522
32.605293 5.936697 6.9359512
32.605293 7.1781983 5.9556551
32.605293 8.536108 5.1442471
32.605293 9.9875927 4.5153694
32.607826 11.491332 4.0777345
32.518616 2.0724609 15.28968
32.518616 2.2655017 13.739134
32.518616 2.6575551 12.226602
32.518616 3.2420306 10.777517
32.518616 4.0091014 9.4162436
32.518616 4.9458632 8.1656713
32.518616 6.036572 7.0468273
32.518616 7.2628856 6.0785227
32.518616 8.6041842 5.2770395
32.518616 10.037918 4.6558537
32.604668 11.510879 4.0803866
32.407574 2.2043326 15.297466
32.407574 2.3952575 13.763919
32.407574 2.7830153 12.267969
32.407574 3.3610835 10.83477
32.407574 4.1197429 9.4884205
32.407574 5.0462375 8.2515574
32.407574 6.1249881 7.144978
32.407574 7.3378572 6.1872892
32.407574 8.6644516 5.3945928
32.407574 10.082464 4.7802172
32.275471 2.3151822 15.304012
32.275471 2.5043302 13.784753
32.275471 2.8884709 12.302742
32.275471 3.4611561 10.882896
32.275471 4.2127447 9.5490913
32.275471 5.1306076 8.3237524
32.275471 6.1993079 7.2274833
32.275471 7.4008741 6.278718
32.275471 8.7151117 5.4934072
32.275471 10.119911 4.8847561
32.126247 2.4017096 15.309122
32.126247 2.589468 13.801016
32.126247 2.9707887 12.329885
32.126247 3.539268 10.920463
32.126247 4.2853394 9.5964489
32.126247 5.1964631 8.380106
32.126247 6.257318 7.2918849
32.126247 7.4500666 6.3500843
32.126247 8.754652 5.5705385
31.96434 2.4613328 15.312643
31.96434 2.6481376 13.812222
31.96434 3.0275173 12.348588
31.96434 3.5930984 10.94635
31.96434 4.3353662 9.6290836
31.96434 5.2418485 8.4189396
31.96434 6.2972941 7.3362646
31.96434 7.4839668 6.3992639
31.96434 8.7819023 5.6236906
31.96434 10.169287 5.0225873
55.700466 3.0014999 8
55.700466 3.0774622 7.1317601
55.700466 3.3030362 6.2899003
55.700466 3.6713741 5.500001
55.700466 4.1712785 4.7860632
55.700466 4.7875605 4.1697788
55.700466 5.5015011 3.6698737
55.700466 6.2914004 3.3015375
55.700466 7.1332603 3.0759621
35.648357 0.001501292 11.489411
35.438614 0.001501292 14.49521
35.539093 0.001501292 12.992182
34.1679 1.2779273 11.398561
34.099609 1.0944195 12.881873
0.70046633 111.53327 3.5490739
0.70046633 113.6265 4.5251641
0.70046633 115.51843 5.8499117
0.70046633 117.15159 7.4830651
0.70046633 118.47634 9.375001
0.70046633 119.45242 11.468234
0.70046633 120.0015 13.438263
0.76123327 120.69609 3.0000005
0.89624155 121.23757 3.0000005
0.94169378 121.36958 3.0000005
1.1364408 121.81746 3.0000005
1.2363642 122.0015 3.0000005
1.4643967 122.35264 3.0000005
1.6362891 122.57265 3.0000005
1.8720403 122.82993 3.0000005
2.1293163 123.06568 3.0000005
2.3493245 123.23756 3.0000005
2.7004666 123.46561 3.0000005
2.8845034 123.56552 3.0000005
3.3323839 123.76027 3.0000005
3.464397 123.80573 3.0000005
4.0058718 123.94073 3.0000005
0.70522726 120.19664 14.849113
16.597849 119.45919 11.000001
31.172602 38.390076 3.0000005
31.82852 37.319714 3.0000005
32.308918 36.159927 3.0000005
32.601974 34.939266 3.0000005
15.758827 65.737679 10.6
16.010296 65.782021 15.472347
15.602413 66.321426 10.6
15.84236 66.40876 15.472347
15.347008 66.869141 10.6
15.568145 66.996811 15.472347
15.000373 67.364182 10.6
15.195981 67.52832 15.472347
14.573041 67.791519 10.6
14.737178 67.987122 15.472347
14.077999 68.138153 10.6
14.205672 68.359291 15.472347
13.530284 68.393555 10.6
13.617616 68.633499 15.472347
12.946539 68.549965 10.6
12.990877 68.801437 15.472347
12.344499 68.602638 10.6
12.344499 68.857986 15.472347
11.742461 68.549965 10.6
11.698119 68.801437 15.472347
11.158716 68.393555 10.6
11.071381 68.633499 15.472347
10.611001 68.138153 10.6
10.483324 68.359291 15.472347
10.115955 67.791519 10.6
9.9518223 67.987122 15.472347
9.6886234 67.364182 10.6
9.4930153 67.52832 15.472347
9.3419924 66.869141 10.6
9.1208515 66.996811 15.472347
9.086587 66.321426 10.6
8.8466368 66.40876 15.472347
8.9301729 65.737679 10.6
8.6787043 65.782021 15.472347
8.8775005 65.135643 10.6
8.6221504 65.135643 15.472347
8.9301729 64.5336 10.6
8.6787043 64.489265 15.472347
9.086587 63.94986 10.6
8.8466368 63.862522 15.472347
9.3419924 63.402142 10.6
9.1208515 63.274467 15.472347
9.6886234 62.907097 10.6
9.4930153 62.742962 15.472347
10.115955 62.479767 10.6
9.9518223 62.284157 15.472347
10.611001 62.133133 10.6
10.483324 61.911995 15.472347
11.158716 61.877728 10.6
11.071381 61.637779 15.472347
11.742461 61.721313 10.6
11.698119 61.469845 15.472347
12.344499 61.668644 10.6
12.344499 61.413296 15.472347
12.946539 61.721313 10.6
12.990877 61.469845 15.472347
13.530284 61.877728 10.6
13.617616 61.637779 15.472347
14.077999 62.133133 10.6
14.205672 61.911995 15.472347
14.573041 62.479767 10.6
14.737178 62.284157 15.472347
15.000373 62.907097 10.6
15.195981 62.742962 15.472347
15.347008 63.402142 10.6
15.568145 63.274467 15.472347
15.602413 63.94986 10.6
15.84236 63.862522 15.472347
15.758827 64.5336 10.6
16.010296 64.489265 15.472347
15.811496 65.135643 10.6
16.066845 65.135643 15.472347
12.344499 65.135643 10.6
53.684792 104.60354 10.6
53.936264 104.64788 15.472347
53.528378 105.18728 10.6
53.76833 105.27462 15.472347
53.272976 105.735 10.6
53.494114 105.86267 15.472347
52.926342 106.23004 10.6
53.121948 106.39418 15.472347
52.499008 106.65737 10.6
52.663143 106.85298 15.472347
52.003963 107.00401 10.6
52.131641 107.22514 15.472347
51.456249 107.25941 10.6
51.543583 107.49936 15.472347
50.872505 107.41582 10.6
50.916843 107.6673 15.472347
50.270466 107.4685 10.6
50.270466 107.72385 15.472347
49.668427 107.41582 10.6
49.624088 107.6673 15.472347
49.084682 107.25941 10.6
48.997349 107.49936 15.472347
48.536968 107.00401 10.6
48.409294 107.22514 15.472347
48.041924 106.65737 10.6
47.877789 106.85298 15.472347
47.61459 106.23004 10.6
47.418983 106.39418 15.472347
47.267956 105.735 10.6
47.046818 105.86267 15.472347
47.012554 105.18728 10.6
46.772602 105.27462 15.472347
46.85614 104.60354 10.6
46.604671 104.64788 15.472347
46.803467 104.0015 10.6
46.548119 104.0015 15.472347
46.85614 103.39946 10.6
46.604671 103.35512 15.472347
47.012554 102.81572 10.6
46.772602 102.72838 15.472347
47.267956 102.268 10.6
47.046818 102.14033 15.472347
47.61459 101.77296 10.6
47.418983 101.60882 15.472347
48.041924 101.34563 10.6
47.877789 101.15002 15.472347
48.536968 100.99899 10.6
48.409294 100.77785 15.472347
49.084682 100.74359 10.6
48.997349 100.50364 15.472347
49.668427 100.58717 10.6
49.624088 100.3357 15.472347
50.270466 100.5345 10.6
50.270466 100.27915 15.472347
50.872505 100.58717 10.6
50.916843 100.3357 15.472347
51.456249 100.74359 10.6
51.543583 100.50364 15.472347
52.003963 100.99899 10.6
52.131641 100.77785 15.472347
52.499008 101.34563 10.6
52.663143 101.15002 15.472347
52.926342 101.77296 10.6
53.121948 101.60882 15.472347
53.272976 102.268 10.6
53.494114 102.14033 15.472347
53.528378 102.81572 10.6
53.76833 102.72838 15.472347
53.684792 103.39946 10.6
53.936264 103.35512 15.472347
53.737465 104.0015 10.6
53.992813 104.0015 15.472347
50.270466 104.0015 10.6
44.114792 30.603537 10.6
44.366261 30.647879 15.472347
43.958378 31.187283 10.6
44.198326 31.274616 15.472347
43.702972 31.734999 10.6
43.924114 31.862675 15.472347
43.356339 32.230045 10.6
43.551949 32.394176 15.472347
42.929008 32.657375 10.6
43.093143 32.852982 15.472347
42.433964 33.004009 10.6
42.561638 33.225147 15.472347
41.88625 33.259411 10.6
41.973583 33.499363 15.472347
41.302505 33.415829 10.6
41.346844 33.667297 15.472347
40.700466 33.468498 10.6
40.700466 33.723846 15.472347
40.098427 33.415829 10.6
40.054085 33.667297 15.472347
39.514683 33.259411 10.6
39.427349 33.499363 15.472347
38.966969 33.004009 10.6
38.839291 33.225147 15.472347
38.471924 32.657375 10.6
38.307789 32.852982 15.472347
38.044594 32.230045 10.6
37.848984 32.394176 15.472347
37.697956 31.734999 10.6
37.476818 31.862675 15.472347
37.442554 31.187283 10.6
37.202602 31.274616 15.472347
37.28614 30.603537 10.6
37.034672 30.647879 15.472347
37.233467 30.001501 10.6
36.978119 30.001501 15.472347
37.28614 29.399462 10.6
37.034672 29.355122 15.472347
37.442554 28.815716 10.6
37.202602 28.728382 15.472347
37.697956 28.268 10.6
37.476818 28.140327 15.472347
38.044594 27.772957 10.6
37.848984 27.608822 15.472347
38.471924 27.345625 10.6
38.307789 27.150017 15.472347
38.966969 26.998991 10.6
38.839291 26.777853 15.472347
39.514683 26.743587 10.6
39.427349 26.503637 15.472347
40.098427 26.587173 10.6
40.054085 26.335703 15.472347
40.700466 26.534502 10.6
40.700466 26.279154 15.472347
41.302505 26.587173 10.6
41.346844 26.335703 15.472347
41.88625 26.743587 10.6
41.973583 26.503637 15.472347
42.433964 26.998991 10.6
42.561638 26.777853 15.472347
42.929008 27.345625 10.6
43.093143 27.150017 15.472347
43.356339 27.772957 10.6
43.551949 27.608822 15.472347
43.702972 28.268 10.6
43.924114 28.140327 15.472347
43.958378 28.815716 10.6
44.198326 28.728382 15.472347
44.114792 29.399462 10.6
44.366261 29.355122 15.472347
44.167465 30.001501 10.6
44.422813 30.001501 15.472347
40.700466 30.001501 10.6
45.775047 113.28695 15.622913
45.775047 115.85067 15.622913
45.746506 115.19485 15.4802
45.737377 114.56881 15.434558
45.746506 113.94277 15.4802
51.257435 38.337936 7.000001
51.305645 38.39539 7.000001
50.821934 38.642879 7.000001
50.859432 38.707829 7.000001
50.340096 38.867561 7.000001
50.365746 38.938042 7.000001
49.826561 39.005165 7.000001
49.839584 39.079025 7.000001
49.296936 39.051498 7.000001
49.296936 39.126499 7.000001
48.767307 39.005165 7.000001
48.754284 39.079025 7.000001
48.253773 38.867561 7.000001
48.228123 38.938042 7.000001
47.771935 38.642879 7.000001
47.734432 38.707829 7.000001
47.336433 38.337936 7.000001
47.288223 38.39539 7.000001
46.960499 37.962002 7.000001
46.903046 38.010212 7.000001
46.655556 37.526501 7.000001
46.590607 37.563999 7.000001
46.43087 37.044662 7.000001
46.360394 37.070312 7.000001
46.29327 36.531128 7.000001
46.21941 36.544151 7.000001
46.246933 36.001499 7.000001
46.171936 36.001499 7.000001
46.29327 35.471874 7.000001
46.21941 35.458851 7.000001
46.43087 34.95834 7.000001
46.360394 34.932686 7.000001
46.655556 34.476501 7.000001
46.590607 34.438999 7.000001
46.960499 34.040997 7.000001
46.903046 33.99279 7.000001
47.336433 33.665066 7.000001
47.288223 33.607613 7.000001
47.771935 33.360123 7.000001
47.734432 33.29517 7.000001
48.253773 33.135437 7.000001
48.228123 33.06496 7.000001
48.767307 32.997837 7.000001
48.754284 32.923977 7.000001
49.296936 32.9515 7.000001
49.296936 32.876499 7.000001
49.826561 32.997837 7.000001
49.839584 32.923977 7.000001
50.340096 33.135437 7.000001
50.365746 33.06496 7.000001
50.821934 33.360123 7.000001
50.859432 33.29517 7.000001
51.257435 33.665066 7.000001
51.305645 33.607613 7.000001
51.633369 34.040997 7.000001
51.690823 33.99279 7.000001
51.938313 34.476501 7.000001
52.003265 34.438999 7.000001
52.162998 34.95834 7.000001
52.233475 34.932686 7.000001
52.300598 35.471874 7.000001
52.374458 35.458851 7.000001
52.346935 36.001499 7.000001
52.421936 36.001499 7.000001
52.300598 36.531128 7.000001
52.374458 36.544151 7.000001
52.162998 37.044662 7.000001
52.233475 37.070312 7.000001
51.938313 37.526501 7.000001
52.003265 37.563999 7.000001
51.633369 37.962002 7.000001
51.690823 38.010212 7.000001
52.421936 36.001499 15.000001
52.374458 36.544151 15.000001
52.233475 37.070312 15.000001
52.003265 37.563999 15.000001
51.690823 38.010212 15.000001
51.305645 38.39539 15.000001
50.859432 38.707829 15.000001
50.365746 38.938042 15.000001
49.839584 39.079025 15.000001
49.296936 39.126499 15.000001
48.754284 39.079025 15.000001
48.228123 38.938042 15.000001
47.734432 38.707829 15.000001
47.288223 38.39539 15.000001
46.903046 38.010212 15.000001
46.590607 37.563999 15.000001
46.360394 37.070312 15.000001
46.21941 36.544151 15.000001
46.171936 36.001499 15.000001
46.21941 35.458851 15.000001
46.360394 34.932686 15.000001
46.590607 34.438999 15.000001
46.903046 33.99279 15.000001
47.288223 33.607613 15.000001
47.734432 33.29517 15.000001
48.228123 33.06496 15.000001
48.754284 32.923977 15.000001
49.296936 32.876499 15.000001
49.839584 32.923977 15.000001
50.365746 33.06496 15.000001
50.859432 33.29517 15.000001
51.305645 33.607613 15.000001
51.690823 33.99279 15.000001
52.003265 34.438999 15.000001
52.233475 34.932686 15.000001
52.374458 35.458851 15.000001
24.230093 64.505165 7.000001
24.243116 64.579025 7.000001
23.700464 64.551498 7.000001
23.700464 64.626503 7.000001
23.170839 64.505165 7.000001
23.157816 64.579025 7.000001
22.657305 64.367561 7.000001
22.631653 64.438042 7.000001
22.175465 64.142876 7.000001
22.137966 64.207832 7.000001
21.739964 63.837936 7.000001
21.691755 63.89539 7.000001
21.364029 63.462002 7.000001
21.306578 63.510212 7.000001
21.059088 63.026501 7.000001
20.994139 63.063999 7.000001
20.834406 62.544662 7.000001
20.763926 62.570312 7.000001
20.696804 62.031128 7.000001
20.622942 62.044151 7.000001
20.650465 61.501499 7.000001
20.575468 61.501499 7.000001
20.696804 60.971874 7.000001
20.622942 60.958851 7.000001
20.834406 60.45834 7.000001
20.763926 60.432686 7.000001
21.059088 59.976501 7.000001
20.994139 59.938999 7.000001
21.364029 59.540997 7.000001
21.306578 59.492786 7.000001
21.739964 59.165066 7.000001
21.691755 59.107613 7.000001
22.175465 58.860123 7.000001
22.137966 58.79517 7.000001
22.657305 58.635437 7.000001
22.631653 58.56496 7.000001
23.170839 58.497837 7.000001
23.157816 58.423977 7.000001
23.700464 58.4515 7.000001
23.700464 58.376499 7.000001
24.230093 58.497837 7.000001
24.243116 58.423977 7.000001
24.743628 58.635437 7.000001
24.769278 58.56496 7.000001
25.225466 58.860123 7.000001
25.262966 58.79517 7.000001
25.660967 59.165066 7.000001
25.709177 59.107613 7.000001
26.036901 59.540997 7.000001
26.094355 59.492786 7.000001
26.341845 59.976501 7.000001
26.406796 59.938999 7.000001
26.566528 60.45834 7.000001
26.637005 60.432686 7.000001
26.704128 60.971874 7.000001
26.77799 60.958851 7.000001
26.750465 61.501499 7.000001
26.825466 61.501499 7.000001
26.704128 62.031128 7.000001
26.77799 62.044151 7.000001
26.566528 62.544662 7.000001
26.637005 62.570312 7.000001
26.341845 63.026501 7.000001
26.406796 63.063999 7.000001
26.036901 63.462002 7.000001
26.094355 63.510212 7.000001
25.660967 63.837936 7.000001
25.709177 63.89539 7.000001
25.225466 64.142876 7.000001
25.262966 64.207832 7.000001
24.743628 64.367561 7.000001
24.769278 64.438042 7.000001
26.825466 61.501499 15.000001
26.77799 62.044151 15.000001
26.637005 62.570312 15.000001
26.406796 63.063999 15.000001
26.094355 63.510212 15.000001
25.709177 63.89539 15.000001
25.262966 64.207832 15.000001
24.769278 64.438042 15.000001
24.243116 64.579025 15.000001
23.700464 64.626503 15.000001
23.157816 64.579025 15.000001
22.631653 64.438042 15.000001
22.137966 64.207832 15.000001
21.691755 63.89539 15.000001
21.306578 63.510212 15.000001
20.994139 63.063999 15.000001
20.763926 62.570312 15.000001
20.622942 62.044151 15.000001
20.575468 61.501499 15.000001
20.622942 60.958851 15.000001
20.763926 60.432686 15.000001
20.994139 59.938999 15.000001
21.306578 59.492786 15.000001
21.691755 59.107613 15.000001
22.137966 58.79517 15.000001
22.631653 58.56496 15.000001
23.157816 58.423977 15.000001
23.700464 58.376499 15.000001
24.243116 58.423977 15.000001
24.769278 58.56496 15.000001
25.262966 58.79517 15.000001
25.709177 59.107613 15.000001
26.094355 59.492786 15.000001
26.406796 59.938999 15.000001
26.637005 60.432686 15.000001
26.77799 60.958851 15.000001
50.340096 64.367561 7.000001
50.365746 64.438042 7.000001
49.826561 64.505165 7.000001
49.839584 64.579025 7.000001
49.296936 64.551498 7.000001
49.296936 64.626503 7.000001
48.767307 64.505165 7.000001
48.754284 64.579025 7.000001
48.253773 64.367561 7.000001
48.228123 64.438042 7.000001
47.771935 64.142876 7.000001
47.734432 64.207832 7.000001
