# .PCD v0.7 - Point Cloud Data file format
VERSION 0.7
FIELDS x y z
SIZE 4 4 4
TYPE F F F
COUNT 1 1 1
WIDTH 1439
HEIGHT 1
VIEWPOINT 0 0 0 1 0 0 0
POINTS 1439
DATA ascii
-0.08977773 0.10539093 0.31200001
-0.088956192 0.10539093 0.31200001
-0.088134646 0.10539093 0.31200001
-0.087313093 0.10539093 0.31200001
-0.086491548 0.10539093 0.31200001
-0.085120402 0.10572873 0.31300002
-0.084296227 0.10572873 0.31300002
-0.083738722 0.10606652 0.31400001
-0.082911909 0.10606652 0.31400001
-0.082085088 0.10606652 0.31400001
-0.081258282 0.10606652 0.31400001
-0.08068762 0.10640431 0.31500003
-0.079858169 0.10640431 0.31500003
-0.079279609 0.1067421 0.31600001
-0.078447521 0.1067421 0.31600001
-0.061860301 0.1026886 0.30400002
-0.061260674 0.10302639 0.30500001
-0.06065578 0.10336419 0.30600002
-0.05985003 0.10336419 0.30600002
-0.059237234 0.10370198 0.30700001
-0.058619175 0.10403977 0.30800003
-0.0571822 0.10437756 0.30900002
-0.056368552 0.10437756 0.30900002
-0.055554904 0.10437756 0.30900002
-0.054741252 0.10437756 0.30900002
-0.053927604 0.10437756 0.30900002
-0.05311396 0.10437756 0.30900002
-0.052131057 0.10403977 0.30800003
-0.051320039 0.10403977 0.30800003
-0.048569545 0.10336419 0.30600002
-0.047607701 0.10302639 0.30500001
-0.046958048 0.10336419 0.30600002
-0.045494735 0.10370198 0.30700001
-0.044831913 0.10403977 0.30800003
-0.044163827 0.10437756 0.30900002
-0.043490466 0.10471535 0.31
-0.042811844 0.10505314 0.31100002
-0.042127952 0.10539093 0.31200001
-0.041438799 0.10572873 0.31300002
-0.040744375 0.10606652 0.31400001
-0.039917562 0.10606652 0.31400001
-0.039215244 0.10640431 0.31500003
-0.038385794 0.10640431 0.31500003
-0.037556347 0.10640431 0.31500003
-0.036726899 0.10640431 0.31500003
-0.035897452 0.10640431 0.31500003
-0.035068002 0.10640431 0.31500003
-0.034238558 0.10640431 0.31500003
-0.033409107 0.10640431 0.31500003
-0.03257966 0.10640431 0.31500003
-0.031649418 0.10606652 0.31400001
-0.030822603 0.10606652 0.31400001
-0.029900264 0.10572873 0.31300002
-0.028890291 0.10505314 0.31100002
-0.027981112 0.10471535 0.31
-0.027077205 0.10437756 0.30900002
-0.026263556 0.10437756 0.30900002
-0.025367545 0.10403977 0.30800003
-0.024556531 0.10403977 0.30800003
-0.023668418 0.10370198 0.30700001
-0.022860035 0.10370198 0.30700001
-0.021979826 0.10336419 0.30600002
-0.016286183 0.10302639 0.30500001
-0.015483067 0.10302639 0.30500001
0.07583645 0.10606652 0.31400001
0.079143703 0.10606652 0.31400001
0.079970516 0.10606652 0.31400001
0.080797337 0.10606652 0.31400001
0.081884101 0.10640431 0.31500003
0.082713552 0.10640431 0.31500003
0.083542995 0.10640431 0.31500003
0.084372438 0.10640431 0.31500003
0.085201897 0.10640431 0.31500003
0.085758217 0.10606652 0.31400001
0.086585037 0.10606652 0.31400001
0.087411851 0.10606652 0.31400001
0.088238657 0.10606652 0.31400001
0.089065477 0.10606652 0.31400001
0.090178579 0.10640431 0.31500003
0.090719111 0.10606652 0.31400001
0.091837473 0.10640431 0.31500003
0.092961095 0.1067421 0.31600001
0.094089992 0.10707989 0.317
0.09582305 0.10809327 0.32000002
0.097571902 0.10910664 0.32300001
0.099031843 0.10978223 0.32500002
0.10019497 0.11012001 0.32600001
0.10136336 0.11045781 0.32700002
0.10253701 0.11079559 0.32800001
0.10340069 0.11079559 0.32800001
0.10458226 0.1111334 0.32900003
0.10576908 0.11147118 0.33000001
0.10631488 0.1111334 0.32900003
0.10718119 0.1111334 0.32900003
0.10804751 0.1111334 0.32900003
0.10891382 0.1111334 0.32900003
0.10944645 0.11079559 0.32800001
0.1096375 0.11012001 0.32600001
0.11148322 0.10775547 0.31900001
0.1119711 0.10741769 0.31800002
0.11280844 0.10741769 0.31800002
0.1132884 0.10707989 0.317
0.11412312 0.10707989 0.317
0.11495783 0.10707989 0.317
0.11542728 0.1067421 0.31600001
0.11625936 0.1067421 0.31600001
0.11709143 0.1067421 0.31600001
0.11755035 0.10640431 0.31500003
0.11837979 0.10640431 0.31500003
0.11920924 0.10640431 0.31500003
0.11965761 0.10606652 0.31400001
0.12048442 0.10606652 0.31400001
0.12131124 0.10606652 0.31400001
0.12213805 0.10606652 0.31400001
0.12296487 0.10606652 0.31400001
0.12379168 0.10606652 0.31400001
0.1246185 0.10606652 0.31400001
0.12544531 0.10606652 0.31400001
0.12627213 0.10606652 0.31400001
0.12709895 0.10606652 0.31400001
0.12792575 0.10606652 0.31400001
0.12875257 0.10606652 0.31400001
0.12957938 0.10606652 0.31400001
0.13040619 0.10606652 0.31400001
0.13123301 0.10606652 0.31400001
0.13205983 0.10606652 0.31400001
0.13576016 0.10572873 0.31300002
0.13658434 0.10572873 0.31300002
0.13740852 0.10572873 0.31300002
0.13823271 0.10572873 0.31300002
0.13905689 0.10572873 0.31300002
0.13988106 0.10572873 0.31300002
0.14070526 0.10572873 0.31300002
0.1419816 0.10606652 0.31400001
0.14280842 0.10606652 0.31400001
0.14363523 0.10606652 0.31400001
0.14446203 0.10606652 0.31400001
0.14575157 0.10640431 0.31500003
0.14658101 0.10640431 0.31500003
-0.18470444 0.1079146 0.317
-0.18386972 0.1079146 0.317
-0.18361241 0.10825504 0.31800002
-0.18277507 0.10825504 0.31800002
-0.18193772 0.10825504 0.31800002
-0.18110037 0.10825504 0.31800002
-0.17969616 0.1079146 0.317
-0.17829721 0.10757419 0.31600001
-0.17746513 0.10757419 0.31600001
-0.17607409 0.10723377 0.31500003
-0.17524464 0.10723377 0.31500003
-0.17441519 0.10723377 0.31500003
-0.17358574 0.10723377 0.31500003
-0.1727563 0.10723377 0.31500003
-0.17192686 0.10723377 0.31500003
-0.17055424 0.10689334 0.31400001
-0.1697274 0.10689334 0.31400001
-0.16836271 0.10655291 0.31300002
-0.16753852 0.10655291 0.31300002
-0.16618171 0.10621249 0.31200001
-0.16536017 0.10621249 0.31200001
-0.16103503 0.10553163 0.31
-0.15970193 0.10519122 0.30900002
-0.15888827 0.10519122 0.30900002
-0.15492843 0.10416994 0.30600002
-0.15040652 0.10382951 0.30500001
-0.14928818 0.10416994 0.30600002
-0.14896765 0.10451037 0.30700001
-0.14815928 0.10451037 0.30700001
-0.14735089 0.10451037 0.30700001
-0.1465425 0.10451037 0.30700001
-0.14573413 0.10451037 0.30700001
-0.14539783 0.10485079 0.30800003
-0.14458682 0.10485079 0.30800003
-0.14377579 0.10485079 0.30800003
-0.14296478 0.10485079 0.30800003
-0.14215377 0.10485079 0.30800003
-0.14134274 0.10485079 0.30800003
-0.14098801 0.10519122 0.30900002
-0.14017434 0.10519122 0.30900002
-0.13981171 0.10553163 0.31
-0.13899541 0.10553163 0.31
-0.13817914 0.10553163 0.31
-0.13780597 0.10587206 0.31100002
-0.13698706 0.10587206 0.31100002
-0.13660598 0.10621249 0.31200001
-0.13578442 0.10621249 0.31200001
-0.13496287 0.10621249 0.31200001
-0.13414134 0.10621249 0.31200001
-0.13331978 0.10621249 0.31200001
-0.13249823 0.10621249 0.31200001
-0.13209873 0.10655291 0.31300002
-0.13085514 0.10621249 0.31200001
-0.13045038 0.10655291 0.31300002
-0.12921204 0.10621249 0.31200001
-0.12839049 0.10621249 0.31200001
-0.12756895 0.10621249 0.31200001
-0.1267474 0.10621249 0.31200001
-0.12592585 0.10621249 0.31200001
-0.12510431 0.10621249 0.31200001
-0.12428275 0.10621249 0.31200001
-0.12385692 0.10655291 0.31300002
-0.12303274 0.10655291 0.31300002
-0.12220856 0.10655291 0.31300002
-0.12138437 0.10655291 0.31300002
-0.1205602 0.10655291 0.31300002
-0.11973602 0.10655291 0.31300002
-0.11891184 0.10655291 0.31300002
-0.11808765 0.10655291 0.31300002
-0.11726347 0.10655291 0.31300002
-0.1164393 0.10655291 0.31300002
-0.11524572 0.10621249 0.31200001
-0.11479093 0.10655291 0.31300002
-0.11396674 0.10655291 0.31300002
-0.11350404 0.10689334 0.31400001
-0.11267723 0.10689334 0.31400001
-0.11220663 0.10723377 0.31500003
-0.11137719 0.10723377 0.31500003
-0.11054773 0.10723377 0.31500003
-0.10971829 0.10723377 0.31500003
-0.1092345 0.10757419 0.31600001
-0.10840243 0.10757419 0.31600001
-0.10791076 0.1079146 0.317
-0.10707604 0.1079146 0.317
-0.10624133 0.1079146 0.317
-0.10507411 0.10757419 0.31600001
-0.10424203 0.10757419 0.31600001
-0.10308271 0.10723377 0.31500003
-0.10225326 0.10723377 0.31500003
-0.10142381 0.10723377 0.31500003
-0.10059436 0.10723377 0.31500003
-0.099764913 0.10723377 0.31500003
-0.098621383 0.10689334 0.31400001
-0.097794563 0.10689334 0.31400001
-0.096967757 0.10689334 0.31400001
-0.095834754 0.10655291 0.31300002
-0.095010579 0.10655291 0.31300002
-0.093885474 0.10621249 0.31200001
-0.093063928 0.10621249 0.31200001
-0.091946743 0.10587206 0.31100002
-0.09112782 0.10587206 0.31100002
-0.090018518 0.10553163 0.31
-0.089202233 0.10553163 0.31
-0.088385954 0.10553163 0.31
-0.087569676 0.10553163 0.31
-0.087033249 0.10587206 0.31100002
-0.084026903 0.10621249 0.31200001
-0.08320535 0.10621249 0.31200001
-0.08264786 0.10655291 0.31300002
-0.081823677 0.10655291 0.31300002
-0.080999501 0.10655291 0.31300002
-0.08017531 0.10655291 0.31300002
-0.079351135 0.10655291 0.31300002
-0.078526959 0.10655291 0.31300002
-0.077454515 0.10621249 0.31200001
-0.068039604 0.10314866 0.303
-0.067241758 0.10314866 0.303
-0.066443905 0.10314866 0.303
-0.065429412 0.10280824 0.30200002
-0.064634189 0.10280824 0.30200002
-0.063838974 0.10280824 0.30200002
-0.063252509 0.10314866 0.303
-0.062248539 0.10280824 0.30200002
-0.060858961 0.10314866 0.303
-0.060259338 0.10348909 0.30400002
-0.059458852 0.10348909 0.30400002
-0.058851324 0.10382951 0.30500001
-0.058048207 0.10382951 0.30500001
-0.057245094 0.10382951 0.30500001
-0.056627035 0.10416994 0.30600002
-0.055821285 0.10416994 0.30600002
-0.055015538 0.10416994 0.30600002
-0.054209787 0.10416994 0.30600002
-0.053404037 0.10416994 0.30600002
-0.052426398 0.10382951 0.30500001
-0.051623281 0.10382951 0.30500001
-0.047451615 0.10348909 0.30400002
-0.046804585 0.10382951 0.30500001
-0.046001468 0.10382951 0.30500001
-0.045346547 0.10416994 0.30600002
-0.044686355 0.10451037 0.30700001
-0.043877974 0.10451037 0.30700001
-0.043209884 0.10485079 0.30800003
-0.042536527 0.10519122 0.30900002
-0.041857902 0.10553163 0.31
-0.04104162 0.10553163 0.31
-0.040355098 0.10587206 0.31100002
-0.039663311 0.10621249 0.31200001
-0.038841762 0.10621249 0.31200001
-0.038020212 0.10621249 0.31200001
-0.037317894 0.10655291 0.31300002
-0.036493711 0.10655291 0.31300002
-0.035669532 0.10655291 0.31300002
-0.034129862 0.10689334 0.31400001
-0.033196986 0.10655291 0.31300002
-0.032372806 0.10655291 0.31300002
-0.031548627 0.10655291 0.31300002
-0.03062628 0.10621249 0.31200001
-0.029709207 0.10587206 0.31100002
-0.028797396 0.10553163 0.31
-0.027890852 0.10519122 0.30900002
-0.026989577 0.10485079 0.30800003
-0.026178561 0.10485079 0.30800003
-0.025285183 0.10451037 0.30700001
-0.024476802 0.10451037 0.30700001
-0.023591323 0.10416994 0.30600002
-0.022785574 0.10416994 0.30600002
-0.021907995 0.10382951 0.30500001
-0.021104878 0.10382951 0.30500001
-0.017833753 0.10348909 0.30400002
-0.01703327 0.10348909 0.30400002
-0.016232787 0.10348909 0.30400002
-0.015432304 0.10348909 0.30400002
-0.014631822 0.10348909 0.30400002
-0.013831339 0.10348909 0.30400002
-0.01307372 0.10382951 0.30500001
-0.012230373 0.10348909 0.30400002
0.073815219 0.10519122 0.30900002
0.074387349 0.10485079 0.30800003
0.075442508 0.10519122 0.30900002
0.078387558 0.10587206 0.31100002
0.079206467 0.10587206 0.31100002
0.080282703 0.10621249 0.31200001
0.0813642 0.10655291 0.31300002
0.08218839 0.10655291 0.31300002
0.083012566 0.10655291 0.31300002
0.083836742 0.10655291 0.31300002
0.084660932 0.10655291 0.31300002
0.086309291 0.10655291 0.31300002
0.087133475 0.10655291 0.31300002
0.087676629 0.10621249 0.31200001
0.088498183 0.10621249 0.31200001
0.089319728 0.10621249 0.31200001
0.090141281 0.10621249 0.31200001
0.091254376 0.10655291 0.31300002
0.09237273 0.10689334 0.31400001
0.093496367 0.10723377 0.31500003
0.095523596 0.10859546 0.31900001
0.097269826 0.10961674 0.32200003
0.099031843 0.11063801 0.32500002
0.10050232 0.11131886 0.32700002
0.10253701 0.11165928 0.32800001
0.10371595 0.11199971 0.32900003
0.10490013 0.11234013 0.33000001
0.10576908 0.11234013 0.33000001
0.10663802 0.11234013 0.33000001
0.10750696 0.11234013 0.33000001
0.10837591 0.11234013 0.33000001
0.10891382 0.11199971 0.32900003
0.10944645 0.11165928 0.32800001
0.11029641 0.10825504 0.31800002
0.11078426 0.1079146 0.317
0.11126688 0.10757419 0.31600001
0.11209895 0.10757419 0.31600001
0.11257366 0.10723377 0.31500003
0.11340311 0.10723377 0.31500003
0.11423256 0.10723377 0.31500003
0.11506201 0.10723377 0.31500003
0.11589145 0.10723377 0.31500003
0.11635035 0.10689334 0.31400001
0.11717717 0.10689334 0.31400001
0.11800398 0.10689334 0.31400001
0.1188308 0.10689334 0.31400001
0.11965761 0.10689334 0.31400001
0.12010071 0.10655291 0.31300002
0.1209249 0.10655291 0.31300002
0.12174908 0.10655291 0.31300002
0.12257326 0.10655291 0.31300002
0.12339745 0.10655291 0.31300002
0.12422163 0.10655291 0.31300002
0.12504581 0.10655291 0.31300002
0.12586999 0.10655291 0.31300002
0.12669417 0.10655291 0.31300002
0.12751836 0.10655291 0.31300002
0.12834254 0.10655291 0.31300002
0.12875403 0.10621249 0.31200001
0.12957558 0.10621249 0.31200001
0.13039713 0.10621249 0.31200001
0.13121867 0.10621249 0.31200001
0.13161702 0.10587206 0.31100002
0.13489269 0.10587206 0.31100002
0.1357116 0.10587206 0.31100002
0.1360915 0.10553163 0.31
0.13734943 0.10587206 0.31100002
0.13772407 0.10553163 0.31
0.13898726 0.10587206 0.31100002
0.13980618 0.10587206 0.31100002
0.14062509 0.10587206 0.31100002
0.14144401 0.10587206 0.31100002
0.14272036 0.10621249 0.31200001
0.14354189 0.10621249 0.31200001
0.14482616 0.10655291 0.31300002
0.14565034 0.10655291 0.31300002
-0.18412177 0.10840626 0.31600001
-0.18386972 0.10874932 0.317
-0.18136558 0.10874932 0.317
-0.17856245 0.10806321 0.31500003
-0.17634192 0.10772014 0.31400001
-0.17275408 0.10703403 0.31200001
-0.17193253 0.10703403 0.31200001
-0.17111099 0.10703403 0.31200001
-0.17028944 0.10703403 0.31200001
-0.16892475 0.10669097 0.31100002
-0.16810581 0.10669097 0.31100002
-0.16674899 0.10634791 0.31
-0.16593271 0.10634791 0.31
-0.16511643 0.10634791 0.31
-0.16377017 0.10600486 0.30900002
-0.16242914 0.10566181 0.30800003
-0.16161813 0.10566181 0.30800003
-0.16080712 0.10566181 0.30800003
-0.15999611 0.10566181 0.30800003
-0.15866825 0.10531874 0.30700001
-0.15785986 0.10531874 0.30700001
-0.15653992 0.10497569 0.30600002
-0.15522523 0.10463262 0.30500001
-0.15391582 0.10428957 0.30400002
-0.15311533 0.10428957 0.30400002
-0.15201277 0.10463262 0.30500001
-0.15071389 0.10428957 0.30400002
-0.14960341 0.10463262 0.30500001
-0.1488003 0.10463262 0.30500001
-0.14848243 0.10497569 0.30600002
-0.14767668 0.10497569 0.30600002
-0.14687093 0.10497569 0.30600002
-0.14606518 0.10497569 0.30600002
-0.14478472 0.10463262 0.30500001
-0.14445367 0.10497569 0.30600002
-0.14364794 0.10497569 0.30600002
-0.14284217 0.10497569 0.30600002
-0.14203644 0.10497569 0.30600002
-0.14123069 0.10497569 0.30600002
-0.14042494 0.10497569 0.30600002
-0.14007546 0.10531874 0.30700001
-0.13972071 0.10566181 0.30800003
-0.1389097 0.10566181 0.30800003
-0.13809869 0.10566181 0.30800003
-0.13728768 0.10566181 0.30800003
-0.13691977 0.10600486 0.30900002
-0.1361061 0.10600486 0.30900002
-0.1357303 0.10634791 0.31
-0.13491401 0.10634791 0.31
-0.13409773 0.10634791 0.31
-0.13328145 0.10634791 0.31
-0.13246517 0.10634791 0.31
-0.13164888 0.10634791 0.31
-0.1308326 0.10634791 0.31
-0.13001633 0.10634791 0.31
-0.12920004 0.10634791 0.31
-0.12796962 0.10600486 0.30900002
-0.12715597 0.10600486 0.30900002
-0.12593345 0.10566181 0.30800003
-0.12512244 0.10566181 0.30800003
-0.12431143 0.10566181 0.30800003
-0.12350041 0.10566181 0.30800003
-0.1226894 0.10566181 0.30800003
-0.12227408 0.10600486 0.30900002
-0.12146044 0.10600486 0.30900002
-0.12064678 0.10600486 0.30900002
-0.12022094 0.10634791 0.31
-0.11940467 0.10634791 0.31
-0.11858837 0.10634791 0.31
-0.11777209 0.10634791 0.31
-0.11695581 0.10634791 0.31
-0.11613953 0.10634791 0.31
-0.11532325 0.10634791 0.31
-0.11487635 0.10669097 0.31100002
-0.11231839 0.1073771 0.31300002
-0.11185041 0.10772014 0.31400001
-0.1110236 0.10772014 0.31400001
-0.11019678 0.10772014 0.31400001
-0.10936997 0.10772014 0.31400001
-0.10888883 0.10806321 0.31500003
-0.10805939 0.10806321 0.31500003
-0.10722995 0.10806321 0.31500003
-0.10673827 0.10840626 0.31600001
-0.10557105 0.10806321 0.31500003
-0.10440908 0.10772014 0.31400001
-0.10358227 0.10772014 0.31400001
-0.10242821 0.1073771 0.31300002
-0.10160403 0.1073771 0.31300002
-0.10077985 0.1073771 0.31300002
-0.099636309 0.10703403 0.31200001
-0.098814763 0.10703403 0.31200001
-0.097993225 0.10703403 0.31200001
-0.097171672 0.10703403 0.31200001
-0.096350126 0.10703403 0.31200001
-0.095222391 0.10669097 0.31100002
-0.094403483 0.10669097 0.31100002
-0.09358456 0.10669097 0.31100002
-0.092467368 0.10634791 0.31
-0.091651089 0.10634791 0.31
-0.090541787 0.10600486 0.30900002
-0.089728139 0.10600486 0.30900002
-0.088914491 0.10600486 0.30900002
-0.088100843 0.10600486 0.30900002
-0.087287202 0.10600486 0.30900002
-0.086473547 0.10600486 0.30900002
-0.085659899 0.10600486 0.30900002
-0.083488271 0.10634791 0.31
-0.082938671 0.10669097 0.31100002
-0.082119763 0.10669097 0.31100002
-0.08130084 0.10669097 0.31100002
-0.080481932 0.10669097 0.31100002
-0.079663008 0.10669097 0.31100002
-0.0788441 0.10669097 0.31100002
-0.068945847 0.10291734 0.30000001
-0.06838309 0.10326041 0.30100003
-0.067590505 0.10326041 0.30100003
-0.06679792 0.10326041 0.30100003
-0.066005334 0.10326041 0.30100003
-0.065212756 0.10326041 0.30100003
-0.061249837 0.10326041 0.30100003
-0.060457259 0.10326041 0.30100003
-0.059862893 0.10360345 0.30200002
-0.059067678 0.10360345 0.30200002
-0.058272459 0.10360345 0.30200002
-0.057667561 0.10394651 0.303
-0.056869715 0.10394651 0.303
-0.056071866 0.10394651 0.303
-0.055274013 0.10394651 0.303
-0.054655958 0.10428957 0.30400002
-0.053855475 0.10428957 0.30400002
-0.052880462 0.10394651 0.303
-0.052082617 0.10394651 0.303
-0.051284768 0.10394651 0.303
-0.050486919 0.10394651 0.303
-0.047295522 0.10394651 0.303
-0.046651132 0.10428957 0.30400002
-0.046001468 0.10463262 0.30500001
-0.045198355 0.10463262 0.30500001
-0.044395238 0.10463262 0.30500001
-0.043735053 0.10497569 0.30600002
-0.043069594 0.10531874 0.30700001
-0.042261209 0.10531874 0.30700001
-0.041587852 0.10566181 0.30800003
-0.039281934 0.10600486 0.30900002
-0.038468286 0.10600486 0.30900002
-0.037654635 0.10600486 0.30900002
-0.036840986 0.10600486 0.30900002
-0.036143929 0.10634791 0.31
-0.034511365 0.10634791 0.31
-0.033695087 0.10634791 0.31
-0.032878801 0.10634791 0.31
-0.032062519 0.10634791 0.31
-0.031246241 0.10634791 0.31
-0.030429957 0.10634791 0.31
-0.029518152 0.10600486 0.30900002
-0.028611608 0.10566181 0.30800003
-0.026901947 0.10531874 0.30700001
-0.026093565 0.10531874 0.30700001
-0.02520282 0.10497569 0.30600002
-0.024397073 0.10497569 0.30600002
-0.023514226 0.10463262 0.30500001
-0.022711109 0.10463262 0.30500001
-0.021836167 0.10428957 0.30400002
-0.018572938 0.10394651 0.303
-0.017775089 0.10394651 0.303
-0.016977239 0.10394651 0.303
-0.016179388 0.10394651 0.303
-0.015381539 0.10394651 0.303
-0.01458369 0.10394651 0.303
-0.013785841 0.10394651 0.303
-0.013030856 0.10428957 0.30400002
-0.012230373 0.10428957 0.30400002
-0.011392292 0.10394651 0.303
0.015682662 0.10360345 0.30200002
0.016477879 0.10360345 0.30200002
0.017273096 0.10360345 0.30200002
0.051343337 0.10497569 0.30600002
0.053474002 0.10600486 0.30900002
0.05428765 0.10600486 0.30900002
0.055279616 0.10634791 0.31
0.056095902 0.10634791 0.31
0.057279356 0.10703403 0.31200001
0.057914685 0.10669097 0.31100002
0.070912294 0.10531874 0.30700001
0.073904313 0.10497569 0.30600002
0.076820396 0.10566181 0.30800003
0.07788346 0.10600486 0.30900002
0.0786971 0.10600486 0.30900002
0.079768069 0.10634791 0.31
0.082482129 0.10669097 0.31100002
0.083301045 0.10669097 0.31100002
0.085757792 0.10669097 0.31100002
0.087114595 0.10634791 0.31
0.087930888 0.10634791 0.31
0.088747166 0.10634791 0.31
0.08985237 0.10669097 0.31100002
0.090671279 0.10669097 0.31100002
0.091784365 0.10703403 0.31200001
0.093199551 0.10772014 0.31400001
0.094924696 0.10874932 0.317
0.096967742 0.11012155 0.32100001
0.09933655 0.11183684 0.32600001
0.10050232 0.11217991 0.32700002
0.10167333 0.11252295 0.32800001
0.10284963 0.11286602 0.32900003
0.10403119 0.11320907 0.33000001
0.10521802 0.11355214 0.33100003
0.1060896 0.11355214 0.33100003
0.10696118 0.11355214 0.33100003
0.10783274 0.11355214 0.33100003
0.10870433 0.11355214 0.33100003
0.10924485 0.11320907 0.33000001
0.10978013 0.11286602 0.32900003
0.10980326 0.10943543 0.31900001
0.10994955 0.10874932 0.317
0.11043479 0.10840626 0.31600001
0.11091477 0.10806321 0.31500003
0.11174422 0.10806321 0.31500003
0.11221628 0.10772014 0.31400001
0.1130431 0.10772014 0.31400001
0.11386991 0.10772014 0.31400001
0.11469673 0.10772014 0.31400001
0.11515563 0.1073771 0.31300002
0.11597981 0.1073771 0.31300002
0.116804 0.1073771 0.31300002
0.11762817 0.1073771 0.31300002
0.11807391 0.10703403 0.31200001
0.11889546 0.10703403 0.31200001
0.119717 0.10703403 0.31200001
0.12053856 0.10703403 0.31200001
0.1213601 0.10703403 0.31200001
0.12218165 0.10703403 0.31200001
0.1230032 0.10703403 0.31200001
0.12382475 0.10703403 0.31200001
0.12464629 0.10703403 0.31200001
0.12546784 0.10703403 0.31200001
0.1262894 0.10703403 0.31200001
0.12711093 0.10703403 0.31200001
0.12752245 0.10669097 0.31100002
0.12834136 0.10669097 0.31100002
0.12916027 0.10669097 0.31100002
0.12956125 0.10634791 0.31
0.13037753 0.10634791 0.31
0.13119382 0.10634791 0.31
0.13158426 0.10600486 0.30900002
0.1323979 0.10600486 0.30900002
0.13321155 0.10600486 0.30900002
0.1340252 0.10600486 0.30900002
0.13483886 0.10600486 0.30900002
0.1356525 0.10600486 0.30900002
0.13646616 0.10600486 0.30900002
0.13727979 0.10600486 0.30900002
0.13809344 0.10600486 0.30900002
0.1389071 0.10600486 0.30900002
0.14017291 0.10634791 0.31
0.1409892 0.10634791 0.31
0.14180547 0.10634791 0.31
0.14262176 0.10634791 0.31
0.14390075 0.10669097 0.31100002
-0.18436857 0.10889266 0.31500003
-0.18353912 0.10889266 0.31500003
-0.18328971 0.10923835 0.31600001
-0.18245761 0.10923835 0.31600001
-0.18105078 0.10889266 0.31500003
-0.17686184 0.10785558 0.31200001
-0.17547604 0.1075099 0.31100002
-0.17465714 0.1075099 0.31100002
-0.17327926 0.1071642 0.31
-0.17246297 0.1071642 0.31
-0.17164668 0.1071642 0.31
-0.1708304 0.1071642 0.31
-0.17001413 0.1071642 0.31
-0.16919784 0.1071642 0.31
-0.16702475 0.10681851 0.30900002
-0.1662111 0.10681851 0.30900002
-0.16539745 0.10681851 0.30900002
-0.16405119 0.10647283 0.30800003
-0.16324016 0.10647283 0.30800003
-0.16190177 0.10612713 0.30700001
-0.16109338 0.10612713 0.30700001
-0.15976292 0.10578144 0.30600002
-0.15895717 0.10578144 0.30600002
-0.15763459 0.10543574 0.30500001
-0.15683144 0.10543574 0.30500001
-0.15551677 0.10509006 0.30400002
-0.15420735 0.10474437 0.303
-0.15340951 0.10474437 0.303
-0.152108 0.10439868 0.30200002
-0.15181381 0.10474437 0.303
-0.15101595 0.10474437 0.303
-0.1502181 0.10474437 0.303
-0.14942025 0.10474437 0.303
-0.14862241 0.10474437 0.303
-0.14782456 0.10474437 0.303
-0.14751194 0.10509006 0.30400002
-0.14671147 0.10509006 0.30400002
-0.14591098 0.10509006 0.30400002
-0.1451105 0.10509006 0.30400002
-0.14431003 0.10509006 0.30400002
-0.14350954 0.10509006 0.30400002
-0.14270906 0.10509006 0.30400002
-0.14190857 0.10509006 0.30400002
-0.14157225 0.10543574 0.30500001
-0.14076914 0.10543574 0.30500001
-0.13996603 0.10543574 0.30500001
-0.13916291 0.10543574 0.30500001
-0.13881344 0.10578144 0.30600002
-0.13800769 0.10578144 0.30600002
-0.1376503 0.10612713 0.30700001
-0.13684192 0.10612713 0.30700001
-0.13603355 0.10612713 0.30700001
-0.13566564 0.10647283 0.30800003
-0.13485463 0.10647283 0.30800003
-0.1340436 0.10647283 0.30800003
-0.13366516 0.10681851 0.30900002
-0.13285151 0.10681851 0.30900002
-0.13203786 0.10681851 0.30900002
-0.13079955 0.10647283 0.30800003
-0.12998854 0.10647283 0.30800003
-0.12917751 0.10647283 0.30800003
-0.1283665 0.10647283 0.30800003
-0.12470682 0.10543574 0.30500001
-0.12390371 0.10543574 0.30500001
-0.12310059 0.10543574 0.30500001
-0.12229747 0.10543574 0.30500001
-0.12149436 0.10543574 0.30500001
-0.12069124 0.10543574 0.30500001
-0.12028121 0.10578144 0.30600002
-0.11947545 0.10578144 0.30600002
-0.11905751 0.10612713 0.30700001
-0.11824914 0.10612713 0.30700001
-0.11744075 0.10612713 0.30700001
-0.11701228 0.10647283 0.30800003
-0.11620127 0.10647283 0.30800003
-0.11539026 0.10647283 0.30800003
-0.11457925 0.10647283 0.30800003
-0.11124185 0.1071642 0.31
-0.11078178 0.1075099 0.31100002
-0.11031644 0.10785558 0.31200001
-0.10949489 0.10785558 0.31200001
-0.10867334 0.10785558 0.31200001
-0.10785179 0.10785558 0.31200001
-0.1073733 0.10820128 0.31300002
-0.10654912 0.10820128 0.31300002
-0.10572493 0.10820128 0.31300002
-0.10456561 0.10785558 0.31200001
-0.10341154 0.1075099 0.31100002
-0.10259263 0.1075099 0.31100002
-0.10144646 0.1071642 0.31
-0.10063018 0.1071642 0.31
-0.099813901 0.1071642 0.31
-0.098997615 0.1071642 0.31
-0.098181337 0.1071642 0.31
-0.097365059 0.1071642 0.31
-0.096548773 0.1071642 0.31
-0.095732495 0.1071642 0.31
-0.09491621 0.1071642 0.31
-0.094099931 0.1071642 0.31
-0.092982732 0.10681851 0.30900002
-0.092169084 0.10681851 0.30900002
-0.091059797 0.10647283 0.30800003
-0.090248778 0.10647283 0.30800003
-0.089147374 0.10612713 0.30700001
-0.088338986 0.10612713 0.30700001
-0.087530613 0.10612713 0.30700001
-0.086722232 0.10612713 0.30700001
-0.085913844 0.10612713 0.30700001
-0.085105464 0.10612713 0.30700001
-0.083760656 0.10647283 0.30800003
-0.083218955 0.10681851 0.30900002
-0.082405306 0.10681851 0.30900002
-0.081591658 0.10681851 0.30900002
-0.081039421 0.1071642 0.31
-0.080223143 0.1071642 0.31
-0.078894556 0.10647283 0.30800003
-0.078083545 0.10647283 0.30800003
-0.069270894 0.10301591 0.29800001
-0.068716034 0.10336161 0.29900002
-0.067928717 0.10336161 0.29900002
-0.067141399 0.10336161 0.29900002
-0.066354081 0.10336161 0.29900002
-0.065566763 0.10336161 0.29900002
-0.061046347 0.10370729 0.30000001
-0.060256399 0.10370729 0.30000001
-0.059466448 0.10370729 0.30000001
-0.058872089 0.10405299 0.30100003
-0.058079507 0.10405299 0.30100003
-0.057286922 0.10405299 0.30100003
-0.056494344 0.10405299 0.30100003
-0.055701759 0.10405299 0.30100003
-0.054909173 0.10405299 0.30100003
-0.054296378 0.10439868 0.30200002
-0.053324006 0.10405299 0.30100003
-0.052531421 0.10405299 0.30100003
-0.051738843 0.10405299 0.30100003
-0.050946258 0.10405299 0.30100003
-0.050153676 0.10405299 0.30100003
-0.049525078 0.10439868 0.30200002
-0.048729863 0.10439868 0.30200002
-0.047934648 0.10439868 0.30200002
-0.047139432 0.10439868 0.30200002
-0.046497669 0.10474437 0.303
-0.04569982 0.10474437 0.303
-0.044901971 0.10474437 0.303
-0.04424968 0.10509006 0.30400002
-0.043449201 0.10509006 0.30400002
-0.042648718 0.10509006 0.30400002
-0.041985892 0.10543574 0.30500001
-0.038900558 0.10578144 0.30600002
-0.038094807 0.10578144 0.30600002
-0.037289057 0.10578144 0.30600002
-0.036602531 0.10612713 0.30700001
-0.03579415 0.10612713 0.30700001
-0.03509973 0.10647283 0.30800003
-0.034288716 0.10647283 0.30800003
-0.033477701 0.10647283 0.30800003
-0.032666683 0.10647283 0.30800003
-0.031855669 0.10647283 0.30800003
-0.028518712 0.10612713 0.30700001
-0.027620068 0.10578144 0.30600002
-0.025923574 0.10543574 0.30500001
-0.024317343 0.10543574 0.30500001
-0.023514226 0.10543574 0.30500001
-0.022636648 0.10509006 0.30400002
-0.021836167 0.10509006 0.30400002
-0.020966485 0.10474437 0.303
-0.020168636 0.10474437 0.303
-0.019370787 0.10474437 0.303
-0.01851164 0.10439868 0.30200002
-0.017716425 0.10439868 0.30200002
-0.016921209 0.10439868 0.30200002
-0.016125992 0.10439868 0.30200002
-0.015330776 0.10439868 0.30200002
-0.01458369 0.10474437 0.303
-0.013785841 0.10474437 0.303
-0.01298799 0.10474437 0.303
-0.012190141 0.10474437 0.303
-0.011354694 0.10439868 0.30200002
-0.010559477 0.10439868 0.30200002
-0.0097642606 0.10439868 0.30200002
-0.0089690452 0.10439868 0.30200002
-0.0081467628 0.10405299 0.30100003
-0.0065615964 0.10405299 0.30100003
-0.0057498468 0.10370729 0.30000001
-0.0049598971 0.10370729 0.30000001
0.015630733 0.10405299 0.30100003
0.016423317 0.10405299 0.30100003
0.0172159 0.10405299 0.30100003
0.018008484 0.10405299 0.30100003
0.01959365 0.10405299 0.30100003
0.020318503 0.10370729 0.30000001
0.021108454 0.10370729 0.30000001
0.02182541 0.10336161 0.29900002
0.022612726 0.10336161 0.29900002
0.023400044 0.10336161 0.29900002
0.024187362 0.10336161 0.29900002
0.024891149 0.10301591 0.29800001
0.025675833 0.10301591 0.29800001
0.026460517 0.10301591 0.29800001
0.027245199 0.10301591 0.29800001
0.052149087 0.10578144 0.30600002
0.053127889 0.10612713 0.30700001
0.054111965 0.10647283 0.30800003
0.05591495 0.10681851 0.30900002
0.05691218 0.1071642 0.31
0.057728462 0.1071642 0.31
0.05835589 0.10681851 0.30900002
0.0693845 0.10267022 0.29700002
0.070639059 0.10336161 0.29900002
0.071665257 0.10370729 0.30000001
0.075269021 0.10543574 0.30500001
0.076072142 0.10543574 0.30500001
0.077379353 0.10612713 0.30700001
0.078187734 0.10612713 0.30700001
0.081400633 0.1071642 0.31
0.082216911 0.1071642 0.31
0.083033189 0.1071642 0.31
0.083578996 0.10681851 0.30900002
0.084392644 0.10681851 0.30900002
0.0852063 0.10681851 0.30900002
0.086019941 0.10681851 0.30900002
0.086552575 0.10647283 0.30800003
0.087647244 0.10681851 0.30900002
0.088460885 0.10681851 0.30900002
0.09037973 0.1071642 0.31
0.091196008 0.1071642 0.31
0.092605919 0.10785558 0.31200001
0.094325811 0.10889266 0.31500003
0.096061505 0.10992973 0.31800002
0.10167333 0.11338664 0.32800001
0.10316224 0.11407802 0.33000001
0.10403119 0.11407802 0.33000001
0.10521802 0.11442372 0.33100003
0.1060896 0.11442372 0.33100003
0.10696118 0.11442372 0.33100003
0.10783274 0.11442372 0.33100003
0.10870433 0.11442372 0.33100003
0.1095759 0.11442372 0.33100003
0.10978013 0.11373234 0.32900003
0.10911483 0.10958403 0.317
0.10925587 0.10889266 0.31500003
0.10973584 0.10854696 0.31400001
0.11056265 0.10854696 0.31400001
0.11103473 0.10820128 0.31300002
0.1118589 0.10820128 0.31300002
0.11268309 0.10820128 0.31300002
0.11314462 0.10785558 0.31200001
0.11396617 0.10785558 0.31200001
0.11478772 0.10785558 0.31200001
0.11560926 0.10785558 0.31200001
0.11605764 0.1075099 0.31100002
0.11687656 0.1075099 0.31100002
0.11769547 0.1075099 0.31100002
0.11851439 0.1075099 0.31100002
0.1193333 0.1075099 0.31100002
0.12015222 0.1075099 0.31100002
0.12097113 0.1075099 0.31100002
0.12179005 0.1075099 0.31100002
0.12260896 0.1075099 0.31100002
0.123031 0.1071642 0.31
0.12384728 0.1071642 0.31
0.12466355 0.1071642 0.31
0.12547985 0.1071642 0.31
0.12629612 0.1071642 0.31
0.1271124 0.1071642 0.31
0.12751602 0.10681851 0.30900002
0.12832966 0.10681851 0.30900002
0.12914331 0.10681851 0.30900002
0.12953639 0.10647283 0.30800003
0.13034742 0.10647283 0.30800003
0.13115843 0.10647283 0.30800003
0.13196944 0.10647283 0.30800003
0.13234934 0.10612713 0.30700001
0.13315773 0.10612713 0.30700001
0.13396612 0.10612713 0.30700001
0.13477449 0.10612713 0.30700001
0.13558288 0.10612713 0.30700001
0.13683553 0.10647283 0.30800003
0.13764654 0.10647283 0.30800003
0.13845757 0.10647283 0.30800003
0.13926858 0.10647283 0.30800003
0.1400796 0.10647283 0.30800003
0.14089061 0.10647283 0.30800003
0.14170162 0.10647283 0.30800003
0.14251265 0.10647283 0.30800003
-0.18261266 0.10867713 0.31200001
-0.18179113 0.10867713 0.31200001
-0.18270968 0.10972211 0.31500003
-0.18245761 0.11007043 0.31600001
-0.18047599 0.10937378 0.31400001
-0.17378336 0.10728384 0.30800003
-0.17241074 0.10693551 0.30700001
-0.17160237 0.10693551 0.30700001
-0.17079398 0.10693551 0.30700001
-0.1691772 0.10693551 0.30700001
-0.16836883 0.10693551 0.30700001
-0.16810626 0.10728384 0.30800003
-0.16729525 0.10728384 0.30800003
-0.16351853 0.10693551 0.30700001
-0.16218017 0.10658719 0.30600002
-0.16137441 0.10658719 0.30600002
-0.16004391 0.10623886 0.30500001
-0.1592408 0.10623886 0.30500001
-0.15791823 0.10589054 0.30400002
-0.15711775 0.10589054 0.30400002
-0.15580304 0.10554221 0.303
-0.1550052 0.10554221 0.303
-0.15369843 0.10519389 0.30200002
-0.15290321 0.10519389 0.30200002
-0.152108 0.10519389 0.30200002
-0.15081175 0.10484557 0.30100003
-0.15051755 0.10519389 0.30200002
-0.14972234 0.10519389 0.30200002
-0.14892712 0.10519389 0.30200002
-0.14813191 0.10519389 0.30200002
-0.14733669 0.10519389 0.30200002
-0.1470267 0.10554221 0.303
-0.14622886 0.10554221 0.303
-0.145431 0.10554221 0.303
-0.14463316 0.10554221 0.303
-0.14383531 0.10554221 0.303
-0.14303745 0.10554221 0.303
-0.14223962 0.10554221 0.303
-0.14144176 0.10554221 0.303
-0.14064391 0.10554221 0.303
-0.14030761 0.10589054 0.30400002
-0.13950713 0.10589054 0.30400002
-0.13870664 0.10589054 0.30400002
-0.13835979 0.10623886 0.30500001
-0.13755667 0.10623886 0.30500001
-0.13675356 0.10623886 0.30500001
-0.13595045 0.10623886 0.30500001
-0.13559045 0.10658719 0.30600002
-0.13478468 0.10658719 0.30600002
-0.13441677 0.10693551 0.30700001
-0.13360839 0.10693551 0.30700001
-0.13280001 0.10693551 0.30700001
-0.13199164 0.10693551 0.30700001
-0.13118325 0.10693551 0.30700001
-0.1299502 0.10658719 0.30600002
-0.12914445 0.10658719 0.30600002
-0.12833869 0.10658719 0.30600002
-0.12711617 0.10623886 0.30500001
-0.12631306 0.10623886 0.30500001
-0.12509844 0.10589054 0.30400002
-0.12388907 0.10554221 0.303
-0.12309122 0.10554221 0.303
-0.12229338 0.10554221 0.303
-0.12149552 0.10554221 0.303
-0.12069768 0.10554221 0.303
-0.12029554 0.10589054 0.30400002
-0.11949506 0.10589054 0.30400002
-0.11869457 0.10589054 0.30400002
-0.11828189 0.10623886 0.30500001
-0.11747878 0.10623886 0.30500001
-0.11667566 0.10623886 0.30500001
-0.11587255 0.10623886 0.30500001
-0.11544671 0.10658719 0.30600002
-0.11426631 0.10623886 0.30500001
-0.11346321 0.10623886 0.30500001
-0.11302947 0.10658719 0.30600002
-0.11097369 0.10693551 0.30700001
-0.11016532 0.10693551 0.30700001
-0.10971314 0.10728384 0.30800003
-0.10890213 0.10728384 0.30800003
-0.10844205 0.10763216 0.30900002
-0.10762841 0.10763216 0.30900002
-0.10681476 0.10763216 0.30900002
-0.10600111 0.10763216 0.30900002
-0.10552788 0.10798047 0.31
-0.10504937 0.1083288 0.31100002
-0.10389531 0.10798047 0.31
-0.098847963 0.10693551 0.30700001
-0.098039575 0.10693551 0.30700001
-0.097231202 0.10693551 0.30700001
-0.095925882 0.10728384 0.30800003
-0.093492843 0.10728384 0.30800003
-0.092380904 0.10693551 0.30700001
-0.091572523 0.10693551 0.30700001
-0.090764143 0.10693551 0.30700001
-0.089662746 0.10658719 0.30600002
-0.088856995 0.10658719 0.30600002
-0.087763488 0.10623886 0.30500001
-0.086960375 0.10623886 0.30500001
-0.086157262 0.10623886 0.30500001
-0.085354142 0.10623886 0.30500001
-0.084551036 0.10623886 0.30500001
-0.0840225 0.10658719 0.30600002
-0.083216757 0.10658719 0.30600002
-0.082411006 0.10658719 0.30600002
-0.081871934 0.10693551 0.30700001
-0.08132761 0.10728384 0.30800003
-0.080516592 0.10728384 0.30800003
-0.079705581 0.10728384 0.30800003
-0.078382254 0.10658719 0.30600002
-0.07732299 0.10623886 0.30500001
-0.076018102 0.10554221 0.303
-0.07472375 0.10484557 0.30100003
-0.073439933 0.10414892 0.29900002
-0.07240963 0.10380059 0.29800001
-0.071384594 0.10345227 0.29700002
-0.070364818 0.10310394 0.296
-0.069038443 0.10345227 0.29700002
-0.068486214 0.10380059 0.29800001
-0.067701526 0.10380059 0.29800001
-0.06534747 0.10380059 0.29800001
-0.06456279 0.10380059 0.29800001
-0.061424054 0.10380059 0.29800001
-0.06063937 0.10380059 0.29800001
-0.05985469 0.10380059 0.29800001
-0.059268229 0.10414892 0.29900002
-0.058480911 0.10414892 0.29900002
-0.057693593 0.10414892 0.29900002
-0.056906275 0.10414892 0.29900002
-0.056118965 0.10414892 0.29900002
-0.055331647 0.10414892 0.29900002
-0.05454433 0.10414892 0.29900002
-0.053936798 0.10449724 0.30000001
-0.052969694 0.10414892 0.29900002
-0.052356895 0.10449724 0.30000001
-0.051395062 0.10414892 0.29900002
-0.050607745 0.10414892 0.29900002
-0.049987048 0.10449724 0.30000001
-0.049197096 0.10449724 0.30000001
-0.048407149 0.10449724 0.30000001
-0.047617201 0.10449724 0.30000001
-0.046827249 0.10449724 0.30000001
-0.046037298 0.10449724 0.30000001
-0.04460559 0.10484557 0.30100003
-0.043958563 0.10519389 0.30200002
-0.043163352 0.10519389 0.30200002
-0.042368133 0.10519389 0.30200002
-0.041572917 0.10519389 0.30200002
-0.040777698 0.10519389 0.30200002
-0.038519178 0.10554221 0.303
-0.037721325 0.10554221 0.303
-0.036923476 0.10554221 0.303
-0.036244854 0.10589054 0.30400002
-0.035444371 0.10589054 0.30400002
-0.034643888 0.10589054 0.30400002
-0.033954732 0.10623886 0.30500001
-0.033151615 0.10623886 0.30500001
-0.032348499 0.10623886 0.30500001
-0.031545382 0.10623886 0.30500001
-0.029040512 0.10589054 0.30400002
-0.028240029 0.10589054 0.30400002
-0.027439544 0.10589054 0.30400002
-0.024955733 0.10554221 0.303
-0.024157884 0.10554221 0.303
-0.023360034 0.10554221 0.303
-0.022562183 0.10554221 0.303
-0.021692507 0.10519389 0.30200002
-0.02089729 0.10519389 0.30200002
-0.020102073 0.10519389 0.30200002
-0.019242929 0.10484557 0.30100003
-0.018450344 0.10484557 0.30100003
-0.017657762 0.10484557 0.30100003
-0.016921209 0.10519389 0.30200002
-0.016125992 0.10519389 0.30200002
-0.015330776 0.10519389 0.30200002
-0.014535559 0.10519389 0.30200002
-0.013740343 0.10519389 0.30200002
-0.012945126 0.10519389 0.30200002
-0.01214991 0.10519389 0.30200002
-0.011354694 0.10519389 0.30200002
-0.010559477 0.10519389 0.30200002
-0.0097319297 0.10484557 0.30100003
-0.0089393463 0.10484557 0.30100003
-0.0081467628 0.10484557 0.30100003
-0.0073297466 0.10449724 0.30000001
-0.0065397969 0.10449724 0.30000001
-0.0057498468 0.10449724 0.30000001
0.014045568 0.10484557 0.30100003
0.015630733 0.10484557 0.30100003
0.016423317 0.10484557 0.30100003
0.0172159 0.10484557 0.30100003
0.018008484 0.10484557 0.30100003
0.018801067 0.10484557 0.30100003
0.01959365 0.10484557 0.30100003
0.020318503 0.10449724 0.30000001
0.021038093 0.10414892 0.29900002
0.02182541 0.10414892 0.29900002
0.022612726 0.10414892 0.29900002
0.023321781 0.10380059 0.29800001
0.024106465 0.10380059 0.29800001
0.024891149 0.10380059 0.29800001
0.025675833 0.10380059 0.29800001
0.026371725 0.10345227 0.29700002
0.027153773 0.10345227 0.29700002
0.027935825 0.10345227 0.29700002
0.028717877 0.10345227 0.29700002
0.029499926 0.10345227 0.29700002
0.030180017 0.10310394 0.296
0.051808242 0.10589054 0.30400002
0.052781779 0.10623886 0.30500001
0.053584896 0.10623886 0.30500001
0.057600476 0.10623886 0.30500001
0.058403593 0.10623886 0.30500001
0.059012588 0.10589054 0.30400002
0.059616316 0.10554221 0.303
0.061563998 0.10345227 0.29700002
0.062346052 0.10345227 0.29700002
0.065474249 0.10345227 0.29700002
0.069064423 0.10414892 0.29900002
0.0693845 0.10345227 0.29700002
0.070402801 0.10380059 0.29800001
0.071426377 0.10414892 0.29900002
0.073489308 0.10484557 0.30100003
0.074528672 0.10519389 0.30200002
0.076623209 0.10589054 0.30400002
0.078738809 0.10658719 0.30600002
0.079804502 0.10693551 0.30700001
0.08061289 0.10693551 0.30700001
0.081421264 0.10693551 0.30700001
0.082229644 0.10693551 0.30700001
0.083038032 0.10693551 0.30700001
0.083846413 0.10693551 0.30700001
0.084654801 0.10693551 0.30700001
0.085463181 0.10693551 0.30700001
0.086271554 0.10693551 0.30700001
0.087079942 0.10693551 0.30700001
0.087888323 0.10693551 0.30700001
0.088696711 0.10693551 0.30700001
0.08979664 0.10728384 0.30800003
0.10167333 0.11425032 0.32800001
0.10316224 0.11494696 0.33000001
0.10434644 0.11529529 0.33100003
0.10521802 0.11529529 0.33100003
0.10641011 0.11564361 0.33200002
0.10696118 0.11529529 0.33100003
0.10783274 0.11529529 0.33100003
0.10903274 0.11564361 0.33200002
0.10990695 0.11564361 0.33200002
0.10978013 0.11459865 0.32900003
0.10704958 0.1083288 0.31100002
0.10717481 0.10763216 0.30900002
0.10798845 0.10763216 0.30900002
0.1088021 0.10763216 0.30900002
0.10997049 0.10798047 0.31
0.11078677 0.10798047 0.31
0.11160305 0.10798047 0.31
0.11241933 0.10798047 0.31
0.11323562 0.10798047 0.31
0.11405189 0.10798047 0.31
0.11486817 0.10798047 0.31
0.11568446 0.10798047 0.31
0.11650074 0.10798047 0.31
0.11731703 0.10798047 0.31
0.11813331 0.10798047 0.31
0.11856588 0.10763216 0.30900002
0.11937954 0.10763216 0.30900002
0.12019318 0.10763216 0.30900002
0.12061523 0.10728384 0.30800003
0.12142624 0.10728384 0.30800003
0.12223727 0.10728384 0.30800003
0.12304828 0.10728384 0.30800003
0.12345713 0.10693551 0.30700001
0.12426552 0.10693551 0.30700001
0.12507391 0.10693551 0.30700001
0.1258823 0.10693551 0.30700001
0.12669067 0.10693551 0.30700001
0.12749904 0.10693551 0.30700001
0.1278895 0.10658719 0.30600002
0.12869525 0.10658719 0.30600002
0.129501 0.10658719 0.30600002
0.12988091 0.10623886 0.30500001
0.13068402 0.10623886 0.30500001
0.13148713 0.10623886 0.30500001
0.13229024 0.10623886 0.30500001
0.13309337 0.10623886 0.30500001
0.13389648 0.10623886 0.30500001
0.1346996 0.10623886 0.30500001
0.13550271 0.10623886 0.30500001
0.13630582 0.10623886 0.30500001
0.13710895 0.10623886 0.30500001
0.13791206 0.10623886 0.30500001
0.13916999 0.10658719 0.30600002
0.13997574 0.10658719 0.30600002
0.14078148 0.10658719 0.30600002
0.14158724 0.10658719 0.30600002
-0.18085678 0.1084458 0.30900002
-0.18004313 0.1084458 0.30900002
-0.18038955 0.10914772 0.31100002
-0.18072543 0.10984963 0.31300002
-0.17564428 0.10774389 0.30700001
-0.17232692 0.10669102 0.30400002
-0.17096218 0.10634006 0.303
-0.17016435 0.10634006 0.303
-0.16936649 0.10634006 0.303
-0.16856866 0.10634006 0.303
-0.1683245 0.10669102 0.30400002
-0.16752401 0.10669102 0.30400002
-0.16727196 0.10704197 0.30500001
-0.16646884 0.10704197 0.30500001
-0.16620891 0.10739294 0.30600002
-0.16405949 0.10704197 0.30500001
-0.16325638 0.10704197 0.30500001
-0.16245326 0.10704197 0.30500001
-0.16112016 0.10669102 0.30400002
-0.16031967 0.10669102 0.30400002
-0.1595192 0.10669102 0.30400002
-0.15871871 0.10669102 0.30400002
-0.15739876 0.10634006 0.303
-0.15608408 0.10598911 0.30200002
-0.15239692 0.10563815 0.30100003
-0.14952075 0.10528719 0.30000001
-0.1487308 0.10528719 0.30000001
-0.14605625 0.10563815 0.30100003
-0.14526367 0.10563815 0.30100003
-0.14447108 0.10563815 0.30100003
-0.1436785 0.10563815 0.30100003
-0.14288592 0.10563815 0.30100003
-0.14209333 0.10563815 0.30100003
-0.14130075 0.10563815 0.30100003
-0.14050816 0.10563815 0.30100003
-0.14017975 0.10598911 0.30200002
-0.13938454 0.10598911 0.30200002
-0.13858931 0.10598911 0.30200002
-0.13779409 0.10598911 0.30200002
-0.13699888 0.10598911 0.30200002
-0.13665466 0.10634006 0.303
-0.13585681 0.10634006 0.303
-0.13550471 0.10669102 0.30400002
-0.13470423 0.10669102 0.30400002
-0.13434421 0.10704197 0.30500001
-0.13354109 0.10704197 0.30500001
-0.13273798 0.10704197 0.30500001
-0.13193487 0.10704197 0.30500001
-0.13113175 0.10704197 0.30500001
-0.13032863 0.10704197 0.30500001
-0.12952551 0.10704197 0.30500001
-0.12830037 0.10669102 0.30400002
-0.12749988 0.10669102 0.30400002
-0.12628262 0.10634006 0.303
-0.12507063 0.10598911 0.30200002
-0.12427542 0.10598911 0.30200002
-0.1234802 0.10598911 0.30200002
-0.12268499 0.10598911 0.30200002
-0.12148617 0.10563815 0.30100003
-0.12069358 0.10563815 0.30100003
-0.12029934 0.10598911 0.30200002
-0.11950412 0.10598911 0.30200002
-0.11870891 0.10598911 0.30200002
-0.11791369 0.10598911 0.30200002
-0.11750627 0.10634006 0.303
-0.11670843 0.10634006 0.303
-0.11591057 0.10634006 0.303
-0.11549264 0.10669102 0.30400002
-0.11469216 0.10669102 0.30400002
-0.11351703 0.10634006 0.303
-0.11271919 0.10634006 0.303
-0.11192133 0.10634006 0.303
-0.11112348 0.10634006 0.303
-0.11032563 0.10634006 0.303
-0.10952778 0.10634006 0.303
-0.10908879 0.10669102 0.30400002
-0.1082883 0.10669102 0.30400002
-0.10784139 0.10704197 0.30500001
-0.10336048 0.10739294 0.30600002
-0.098682508 0.10669102 0.30400002
-0.097882025 0.10669102 0.30400002
-0.097081535 0.10669102 0.30400002
-0.096281059 0.10669102 0.30400002
-0.095794655 0.10704197 0.30500001
-0.094991535 0.10704197 0.30500001
-0.092582189 0.10704197 0.30500001
-0.091779068 0.10704197 0.30500001
-0.090975955 0.10704197 0.30500001
-0.090172842 0.10704197 0.30500001
-0.089076713 0.10669102 0.30400002
-0.08827623 0.10669102 0.30400002
-0.087475747 0.10669102 0.30400002
-0.086390145 0.10634006 0.303
-0.0855923 0.10634006 0.303
-0.085074298 0.10669102 0.30400002
-0.084273823 0.10669102 0.30400002
-0.083473332 0.10669102 0.30400002
-0.082672849 0.10669102 0.30400002
-0.081872374 0.10669102 0.30400002
-0.081071883 0.10669102 0.30400002
-0.080535457 0.10704197 0.30500001
-0.079470918 0.10669102 0.30400002
-0.078670442 0.10669102 0.30400002
-0.077613793 0.10634006 0.303
-0.07090389 0.1035324 0.29500002
-0.070127107 0.1035324 0.29500002
-0.068805985 0.10388336 0.296
-0.068256393 0.10423432 0.29700002
-0.067474343 0.10423432 0.29700002
-0.066692293 0.10423432 0.29700002
-0.065910242 0.10423432 0.29700002
-0.065128185 0.10423432 0.29700002
-0.064346142 0.10423432 0.29700002
-0.063564092 0.10423432 0.29700002
-0.062782042 0.10423432 0.29700002
-0.061999988 0.10423432 0.29700002
-0.061217938 0.10423432 0.29700002
-0.060435884 0.10423432 0.29700002
-0.059653837 0.10423432 0.29700002
-0.058871787 0.10423432 0.29700002
-0.058089737 0.10423432 0.29700002
-0.057307683 0.10423432 0.29700002
-0.05671595 0.10458527 0.29800001
-0.055931274 0.10458527 0.29800001
-0.055146586 0.10458527 0.29800001
-0.054361902 0.10458527 0.29800001
-0.053577218 0.10458527 0.29800001
-0.052792534 0.10458527 0.29800001
-0.05200785 0.10458527 0.29800001
-0.05122317 0.10458527 0.29800001
-0.050438486 0.10458527 0.29800001
-0.049653802 0.10458527 0.29800001
-0.048869118 0.10458527 0.29800001
-0.04808443 0.10458527 0.29800001
-0.04729975 0.10458527 0.29800001
-0.046515066 0.10458527 0.29800001
-0.045883842 0.10493623 0.29900002
-0.044309206 0.10493623 0.29900002
-0.043667447 0.10528719 0.30000001
-0.042734578 0.10493623 0.29900002
-0.04194726 0.10493623 0.29900002
-0.041159943 0.10493623 0.29900002
-0.040507648 0.10528719 0.30000001
-0.039717697 0.10528719 0.30000001
-0.038927745 0.10528719 0.30000001
-0.038264927 0.10563815 0.30100003
-0.037472345 0.10563815 0.30100003
-0.036557898 0.10528719 0.30000001
-0.035887174 0.10563815 0.30100003
-0.035211187 0.10598911 0.30200002
-0.034415968 0.10598911 0.30200002
-0.033620752 0.10598911 0.30200002
-0.032825537 0.10598911 0.30200002
-0.032030318 0.10598911 0.30200002
-0.031235103 0.10598911 0.30200002
-0.030439887 0.10598911 0.30200002
-0.028753929 0.10563815 0.30100003
-0.027961344 0.10563815 0.30100003
-0.02716876 0.10563815 0.30100003
-0.026376178 0.10563815 0.30100003
-0.025583595 0.10563815 0.30100003
-0.02479101 0.10563815 0.30100003
-0.023998428 0.10563815 0.30100003
-0.023205845 0.10563815 0.30100003
-0.022413261 0.10563815 0.30100003
-0.021620678 0.10563815 0.30100003
-0.020828094 0.10563815 0.30100003
-0.020035511 0.10563815 0.30100003
-0.019242929 0.10563815 0.30100003
-0.018389046 0.10528719 0.30000001
-0.017657762 0.10563815 0.30100003
-0.016865179 0.10563815 0.30100003
-0.016072595 0.10563815 0.30100003
-0.015280012 0.10563815 0.30100003
-0.01448743 0.10563815 0.30100003
-0.013694846 0.10563815 0.30100003
-0.012902262 0.10563815 0.30100003
-0.012109679 0.10563815 0.30100003
-0.011317097 0.10563815 0.30100003
-0.010489547 0.10528719 0.30000001
-0.009699597 0.10528719 0.30000001
-0.0089096474 0.10528719 0.30000001
-0.0081196968 0.10528719 0.30000001
-0.0073053143 0.10493623 0.29900002
-0.0065179979 0.10493623 0.29900002
-0.0057306807 0.10493623 0.29900002
-0.0049433643 0.10493623 0.29900002
-0.00099667802 0.10388336 0.296
-0.00021726068 0.10388336 0.296
0.00056215667 0.10388336 0.296
0.011551527 0.10458527 0.29800001
0.012377608 0.10493623 0.29900002
0.013208954 0.10528719 0.30000001
0.014045568 0.10563815 0.30100003
0.014838151 0.10563815 0.30100003
0.015578804 0.10528719 0.30000001
0.016423317 0.10563815 0.30100003
0.0172159 0.10563815 0.30100003
0.017948654 0.10528719 0.30000001
0.018738603 0.10528719 0.30000001
0.019528555 0.10528719 0.30000001
0.020250775 0.10493623 0.29900002
0.021038093 0.10493623 0.29900002
0.02182541 0.10493623 0.29900002
0.022612726 0.10493623 0.29900002
0.023321781 0.10458527 0.29800001
0.024106465 0.10458527 0.29800001
