# .PCD v0.7 - Point Cloud Data file format
VERSION 0.7
FIELDS x y z
SIZE 4 4 4
TYPE F F F
COUNT 1 1 1
WIDTH 1130
HEIGHT 1
VIEWPOINT 0 0 0 1 0 0 0
POINTS 1130
DATA ascii
37.812138 4.7003417 -0.23744147
42.622017 4.5141172 -0.16864143
47.868286 4.6075487 -0.17466459
50.697952 4.5449009 -0.20615475
34.546616 8.1138239 -0.37342656
37.574352 7.6398935 -0.67822558
42.481434 7.6480174 -0.66933376
47.526276 7.6812539 -0.68821895
52.131649 7.9423771 -0.62446982
34.415943 12.392364 -0.38372084
37.528084 12.575285 -0.7259407
42.456718 12.460908 -0.76230472
47.547764 12.544978 -0.74789363
52.103333 12.611112 -0.69043618
34.545853 17.220041 -0.47392547
37.553459 17.546202 -0.73972714
42.464756 17.599943 -0.76436442
47.503841 17.61989 -0.73086101
51.981949 17.720304 -0.73069036
34.517303 22.422777 -0.48642987
37.521122 22.464458 -0.73986942
42.490589 22.525322 -0.80018735
47.520416 22.541916 -0.7823807
51.90345 22.557629 -0.70887917
34.350204 27.315456 -0.36266854
37.559147 27.375574 -0.75948822
42.593384 27.472845 -0.78534991
47.495754 27.420481 -0.74856579
51.943447 27.471926 -0.70246106
34.353699 32.48465 -0.36465713
37.568295 32.43066 -0.75065625
42.544617 32.482857 -0.77185518
47.601223 32.547894 -0.82252926
51.959118 32.592758 -0.69546252
33.938225 38.138916 -0.61151338
37.409107 37.499256 -0.75055861
42.525852 37.433109 -0.81035078
47.589787 37.479858 -0.8183375
51.984703 37.520241 -0.72273153
29.225325 44.13504 -0.51265651
32.752705 42.724934 -0.70793492
37.493584 42.475681 -0.81627065
42.649551 42.473083 -0.79450357
47.642136 42.457096 -0.76496583
52.070663 42.513237 -0.69144249
23.972755 48.881313 -0.24541649
27.889185 47.790363 -0.70657903
32.34618 47.421318 -0.81181043
37.472878 47.522758 -0.77678657
42.488861 47.37001 -0.79742908
47.533329 47.547871 -0.83218729
52.167229 47.396004 -0.71999937
19.004509 53.959396 -0.37730998
22.676071 52.774239 -0.65813863
27.630705 52.500984 -0.78937894
32.506664 52.439011 -0.79983926
37.503296 52.532234 -0.79961014
42.494434 52.368805 -0.80784488
47.511757 52.464108 -0.78549832
52.074543 52.451054 -0.73406875
14.085534 58.951458 -0.34588042
17.83567 57.715511 -0.67943406
22.435402 57.40181 -0.78731853
27.541889 57.473995 -0.77624118
32.467278 57.524265 -0.84225172
37.505444 57.626446 -0.78754711
42.3997 57.514313 -0.78280985
47.48682 57.463352 -0.79191947
52.047215 57.613758 -0.75482911
9.0562296 63.921223 -0.39799085
12.71559 62.721798 -0.65097779
17.457397 62.465275 -0.77935749
22.479206 62.533245 -0.78559613
27.576981 62.396793 -0.78199834
32.486008 62.594589 -0.80792421
37.452984 62.649551 -0.81086659
42.414528 62.496929 -0.8083362
47.435051 62.582726 -0.83084631
52.150517 62.525921 -0.71074635
3.99769 69.032814 -0.44969544
7.8080583 67.712494 -0.68608671
12.417564 67.430916 -0.80855232
17.537071 67.419113 -0.77584887
22.51086 67.440094 -0.81191242
27.524433 67.352547 -0.80656111
32.416813 67.502609 -0.82472813
37.465733 67.508141 -0.7727654
42.316746 67.490471 -0.75306916
47.453819 67.517334 -0.85582316
52.162849 67.569061 -0.69521391
3.7509122 72.759094 -0.5451296
7.4904346 72.468056 -0.81391662
12.467863 72.510277 -0.76277936
17.497789 72.53508 -0.77078277
22.547522 72.536537 -0.80685174
27.464138 72.500076 -0.79842365
32.440002 72.51255 -0.84252846
37.633011 72.480659 -0.8072263
42.471649 72.438698 -0.79145998
47.392075 72.410667 -0.83615863
52.037949 72.499847 -0.74210989
3.6105046 77.457207 -0.59228766
7.4602013 77.454018 -0.77640975
12.479928 77.506218 -0.79937959
17.533276 77.496498 -0.76607692
22.545961 77.503296 -0.81355381
27.57593 77.492165 -0.7956931
32.575626 77.581673 -0.83155137
37.73579 77.518341 -0.81324381
42.494724 77.559486 -0.79575264
47.419762 77.500404 -0.8353219
52.131298 77.506218 -0.75366938
3.7031987 82.45414 -0.58749008
7.4909534 82.3899 -0.75601691
12.450034 82.580933 -0.79095316
17.392574 82.442131 -0.77527362
22.359879 82.553154 -0.79773873
27.459467 82.514137 -0.78025812
32.416107 82.5681 -0.84810269
37.618443 82.443291 -0.76005787
42.558304 82.53643 -0.78492033
47.499458 82.535995 -0.87830234
52.102081 82.40168 -0.66888213
3.6682217 87.339798 -0.60100895
7.4970479 87.425865 -0.75405043
12.517256 87.541077 -0.85065824
17.314957 87.374725 -0.77643979
22.328333 87.477989 -0.78261805
27.411446 87.591904 -0.80443376
32.40271 87.464661 -0.86429054
37.647331 87.44503 -0.80334353
42.436493 87.488571 -0.80712813
47.379974 87.422852 -0.83493429
52.11293 87.40519 -0.68335474
3.6012306 92.339989 -0.61227006
7.4826159 92.506889 -0.75071675
12.506253 92.586975 -0.81795448
17.452003 92.376778 -0.77232426
22.320024 92.49395 -0.76438361
27.474939 92.632484 -0.75372189
32.434502 92.501717 -0.7991277
37.50267 92.398796 -0.77426171
42.526875 92.541481 -0.81962454
47.482674 92.380386 -0.79186291
51.955452 92.637428 -0.74742085
3.6240518 97.49279 -0.57777941
7.3956528 97.590828 -0.76654309
12.510311 97.581207 -0.79829955
17.489426 97.53463 -0.74092621
22.37229 97.610847 -0.79274809
27.418089 97.601006 -0.82028651
30.394554 97.310425 -0.63377476
37.932671 97.490532 -0.77297103
42.52504 97.644081 -0.80111134
47.539532 97.446754 -0.84391177
51.965218 97.641975 -0.68286383
3.6670597 102.5237 -0.69319761
7.4976559 102.4521 -0.76981491
12.427533 102.5366 -0.83746141
17.485664 102.56081 -0.78410822
22.408199 102.49155 -0.77916241
27.500311 102.63737 -0.79871917
30.48184 102.16784 -0.54198158
37.731773 102.40829 -0.81026381
42.403538 102.68652 -0.79651773
47.513897 102.45714 -0.84228998
52.058704 102.57301 -0.76401371
55.008228 102.66536 -0.16495851
3.6011152 107.50317 -0.64512622
7.4953289 107.41254 -0.78660178
12.523748 107.45795 -0.76142049
17.428082 107.51485 -0.77845615
22.3447 107.44301 -0.79930675
27.470442 107.5153 -0.80283868
32.412331 108.13007 -0.81380719
37.460922 107.53606 -0.77759641
42.413597 107.60769 -0.82485044
47.64043 107.4215 -0.82247859
52.04575 107.49725 -0.75040025
3.6654699 112.47297 -0.66004902
7.51581 112.44626 -0.77033538
12.546846 112.54956 -0.77533472
17.563971 112.4638 -0.77929252
22.427814 112.3655 -0.75713533
27.367012 112.46893 -0.81739587
32.445263 112.4722 -0.82993895
37.275902 112.45338 -0.77988195
42.500885 112.50996 -0.78916627
47.729691 112.39558 -0.87719989
52.112057 112.4706 -0.76319128
3.6754808 117.52778 -0.60792875
7.474896 117.41917 -0.76620024
12.562386 117.62704 -0.76281267
17.558865 117.46572 -0.74894029
22.468418 117.48033 -0.78400856
27.529993 117.50133 -0.79329389
32.389889 117.50977 -0.80463964
37.23135 117.44463 -0.7823804
42.508419 117.56718 -0.7728793
47.752186 117.44231 -0.83113968
52.079685 117.49313 -0.74886096
3.8235836 121.11613 -0.49227118
7.6595645 121.30872 -0.67617679
12.5653 121.47237 -0.64146978
17.631083 121.31214 -0.74480855
22.480167 121.41343 -0.67144567
27.37501 121.35695 -0.72083163
32.493965 121.47108 -0.68623787
37.199551 121.36346 -0.69313306
42.330307 121.41765 -0.72766787
47.785294 121.44305 -0.79986548
52.01038 121.23665 -0.66674024
33.804451 3.5643318 3.2340639
37.531006 2.7795513 2.6616418
42.528778 2.645339 2.6726468
47.480362 2.6152976 2.7222071
52.36071 2.9669006 2.9082286
55.728439 4.0517273 4.1415591
29.763348 9.4513817 4.8269539
33.224369 7.4269505 2.7313814
37.250362 7.2812934 0.92593771
42.497948 7.1494908 0.80216414
47.54842 7.1622639 0.82828081
53.030251 7.1816745 1.4455187
55.913887 7.6027656 3.1632366
29.788404 12.777504 4.8244486
32.850918 12.492857 2.8297701
36.85326 12.447324 0.98574781
42.292801 12.501484 0.75956011
47.592247 12.390085 0.77203733
53.045681 12.426296 1.4531676
55.904545 12.488402 3.0897114
29.768501 17.482733 4.7998233
32.877167 17.520987 2.7149928
36.987549 17.348185 0.96456999
42.342972 17.486021 0.76230949
47.565502 17.34259 0.75520366
53.026714 17.548277 1.3249295
55.843235 17.548212 3.1509924
29.812473 20.751989 4.8287392
33.174301 22.468929 2.599211
36.978771 22.547344 0.95426279
42.280602 22.49597 0.71436328
47.612041 22.534061 0.74103671
53.12912 22.517977 1.3515695
55.906662 22.502308 3.1886034
33.158154 27.511635 2.5918882
36.989304 27.424837 1.0008888
42.245289 27.469191 0.75926191
47.549816 27.581261 0.76409924
53.125557 27.402197 1.4246954
55.925026 27.459961 3.1726284
33.110397 32.488083 2.6103799
37.010376 32.472092 0.98399121
42.228539 32.307076 0.74139911
47.539833 32.473316 0.78062838
53.134293 32.506611 1.4325919
55.967529 32.359917 3.1267281
29.582781 39.532417 3.6441307
32.533005 37.624199 2.5554767
37.164722 37.406769 0.81942296
42.254768 37.303101 0.76590174
47.550537 37.540817 0.74880457
53.131008 37.5737 1.4575351
56.005165 37.357624 3.1989815
24.670732 44.440308 3.5389328
27.925215 42.946617 2.7100089
32.060444 41.970421 1.3185309
37.426338 42.39172 0.72552198
42.384445 42.272926 0.77826554
47.418736 42.467331 0.73586732
53.104889 42.457554 1.464669
55.927624 42.476879 3.1874404
19.601797 49.532887 3.8168054
22.817503 48.069138 2.724978
27.090708 46.980751 1.3818958
32.610699 47.517643 0.79816121
37.523468 47.566551 0.70840001
42.439415 47.293297 0.7385205
47.496452 47.493832 0.77874494
53.052441 47.535694 1.500172
55.978432 47.555134 3.1640041
14.460367 54.598137 3.8479583
17.91209 52.885563 2.7328172
22.043274 52.258446 1.3527158
27.629919 52.404549 0.72540081
32.569145 52.57909 0.85155839
37.496437 52.569286 0.73555195
42.450699 52.39822 0.7824012
47.538673 52.541756 0.76285189
53.016251 52.541035 1.5809408
55.922482 52.50185 3.0782025
9.6118937 59.540573 3.3024557
12.92293 57.902874 2.7742958
17.170185 56.99004 1.3881326
22.687048 57.53656 0.80422598
27.552958 57.535469 0.66809565
32.631111 57.554142 0.80431288
37.537037 57.409569 0.72095245
42.56535 57.48785 0.77070707
47.580803 57.38237 0.75880349
53.016285 57.490402 1.5102404
55.923599 57.58313 3.1269975
4.3908024 64.829857 3.3923116
8.1238308 62.90353 2.6419063
12.055255 62.047501 1.3772397
17.476879 62.546112 0.7321344
22.497818 62.612988 0.78247565
27.457165 62.60614 0.71555281
32.559544 62.61668 0.8425864
37.515938 62.532829 0.71261007
42.457855 62.567661 0.78963345
47.517677 62.550755 0.74904794
52.995636 62.478428 1.4423892
55.905331 62.465752 3.0456877
3.0318825 67.910034 2.7371523
6.8546481 66.923271 1.4136029
12.386987 67.578697 0.80404919
17.492765 67.484779 0.77725625
22.453415 67.647263 0.78538042
27.419245 67.534683 0.7219559
32.589294 67.560753 0.82598889
37.451744 67.511826 0.71329904
42.479809 67.428856 0.77540249
47.5648 67.586594 0.77570283
52.908218 67.387268 1.3911322
55.84798 67.497574 2.9825699
-0.3323676 72.950081 3.6571689
2.0422075 72.578156 2.5143778
7.477025 72.731606 1.9867098
12.46592 72.604851 2.0762453
17.497337 72.624992 2.132411
22.570925 72.633011 2.2019274
27.544321 72.611961 1.978932
32.548565 72.641655 2.0606828
37.429462 72.658134 1.9538597
42.43256 72.583977 1.7006507
47.516834 72.562218 0.85938114
52.89592 72.487724 1.3492646
55.866714 72.605209 3.0789275
-0.30134296 77.356018 3.5097387
2.1690366 77.618729 2.540503
7.4973226 77.489792 2.2281506
12.428653 77.557411 2.1911786
17.475328 77.510498 2.4039319
22.585669 77.45517 2.3331456
27.623764 77.469933 2.1537881
32.567455 77.54081 2.2416875
37.430153 77.504799 2.1145394
42.450523 77.433945 1.9408723
47.462185 77.429153 0.81666172
52.934433 77.453773 1.4089049
55.892986 77.456398 3.0271885
-0.340803 82.273865 3.7087834
2.160531 82.526176 2.5924215
7.468791 82.474739 2.3565447
12.450857 82.574982 2.3488979
17.518169 82.491646 2.4793689
22.566635 82.533218 2.4111729
27.628881 82.509865 2.3084524
32.551174 82.47654 2.3747759
37.464828 82.457458 2.1740763
42.502434 82.529869 2.0419607
47.462952 82.592598 1.1170505
52.905098 82.553566 1.9963176
55.87822 82.260704 3.0181799
-0.41617465 87.526794 3.5524676
2.2329323 87.422447 2.4804664
7.5205956 87.472565 2.387466
12.518293 87.537605 2.428118
17.553997 87.532959 2.5043802
22.612324 87.452332 2.4517772
27.617498 87.522507 2.3588419
32.552456 87.564774 2.4167891
37.402699 87.51738 2.2961702
42.506378 87.483032 2.0774417
47.571877 87.449158 0.79627383
53.027973 87.477936 1.768003
55.861179 87.419899 3.0750163
-0.35824233 92.601608 3.5909607
2.204201 92.512566 2.5275364
7.5628948 92.445755 2.377857
12.511396 92.568031 2.4649942
17.536922 92.569183 2.4532928
22.629162 92.484558 2.4515271
27.58054 92.597397 2.381156
32.53207 92.951279 2.3142021
37.435703 92.619629 2.2776086
42.45887 92.506927 2.0845304
47.482811 92.402306 0.77710623
52.991009 92.508148 1.4779102
55.91964 92.37458 3.0975266
-0.36068016 97.573128 3.6214404
2.2283108 97.543884 2.3983178
7.5634017 97.512085 2.4685261
12.560075 97.576012 2.4006734
17.536619 97.534447 2.4282815
22.615023 97.523529 2.4118061
27.352512 97.487312 2.0980492
31.889936 97.615952 2.4359288
37.55159 97.54808 2.3108695
42.475178 97.524498 2.0259962
47.552273 97.492973 0.72815323
53.053558 97.478119 1.4928786
55.869949 97.420563 3.158509
-0.2704162 102.4795 3.2807469
2.4386337 102.62523 2.6557436
7.5863843 102.53815 2.3346386
12.454648 102.5467 2.4315643
17.483889 102.5555 2.4067273
22.612936 102.54393 2.4531167
27.268209 102.5154 2.1042519
32.01532 102.45332 2.2726107
37.578762 102.54783 2.3226287
42.474178 102.5121 2.0385592
47.565987 102.52366 0.74673873
53.063862 102.49298 1.5765884
55.93161 102.50208 3.2056234
-0.30773339 107.06051 3.0521142
2.5826373 107.52509 2.4655097
7.5484552 107.52757 2.2637026
12.560987 107.53162 2.4233117
17.559555 107.50978 2.3670447
22.561802 107.55153 2.4357905
27.546679 107.56783 2.2436621
32.507729 107.86644 2.2274899
37.418144 107.49542 2.1524184
42.546902 107.5028 1.9905337
47.538414 107.56515 0.76309955
53.036083 107.60856 1.4891623
55.958614 107.46622 3.1616087
-0.35647964 112.53362 3.3441939
2.346555 112.43214 2.5656424
7.5459127 112.4692 2.310843
12.457299 112.45912 2.3091712
17.4655 112.40402 2.3173838
22.508989 112.50237 2.3116362
27.486881 112.44222 2.1996677
32.492008 112.39378 2.2945445
37.457222 112.4313 2.0790565
42.462429 112.5023 1.9249879
47.439934 112.52306 0.71407902
53.017635 112.58104 1.4510634
55.909649 112.50554 3.2866926
-0.35242563 117.368 3.6915932
2.2440288 117.45419 2.3940368
7.6400728 117.36082 2.1275239
12.374946 117.38667 2.1118994
17.3755 117.35489 2.1322527
22.516527 117.47894 2.2190654
27.658989 117.41633 2.1688991
32.508533 117.41856 2.1995609
37.435261 117.41042 1.9661233
42.483624 117.49833 1.8519845
47.537281 117.49162 0.74318302
53.027813 117.44626 1.5067357
55.905773 117.55962 3.2146494
-0.4520511 120.83241 3.3885758
2.681267 122.52139 2.684957
7.5154018 123.1686 2.4018736
12.458758 123.12011 2.4222903
17.414185 123.05857 2.355917
22.46347 123.12891 2.4253972
27.49337 123.12843 2.3733337
32.449619 123.08737 2.3800478
37.527252 123.06217 2.3246646
42.453365 123.14641 2.4111717
47.456566 123.23357 2.2491288
52.551376 122.8061 2.5030024
55.74435 121.70824 3.2722597
4.9198055 125.0548 4.0661077
13.364294 125.09369 1.9256501
24.597122 125.05496 3.8644354
28.779394 125.05661 3.6051579
32.663212 125.04862 3.7505026
36.742825 125.04472 3.0389493
42.863312 125.0405 3.006583
47.620411 125.02568 2.1198301
29.273949 4.5501218 9.3772116
33.262516 2.8068721 7.6408939
37.476948 0.81298321 7.4460483
42.498669 0.67867136 7.4280491
47.565868 0.68890756 7.4587936
52.752476 1.4797467 7.4903421
55.9086 3.5453227 7.6229167
28.823217 7.3533254 7.5502548
31.827305 7.0506468 7.0374808
37.32262 7.5041871 8.5292511
42.964832 7.1268005 7.9625764
48.059631 7.1624575 7.8316612
52.969421 7.2210498 7.3589048
55.93314 7.0417871 6.3754797
28.631586 12.67635 7.4923372
31.30089 12.183786 6.4464588
37.46854 11.727479 8.7707167
41.891655 12.268191 8.2023106
47.689747 12.088402 8.0654173
53.330711 12.246487 7.5639729
55.9953 13.058023 6.9998021
28.629078 17.427637 7.5643082
31.473787 17.780605 6.5540185
37.452888 18.103506 8.8813372
42.645477 18.343225 7.7588706
48.093826 17.894905 8.0228395
53.25885 17.611929 7.5229483
56.036068 17.009577 7.006618
28.732199 22.462475 7.6834464
32.076374 22.812544 6.9966407
37.255806 21.709194 8.2831907
42.648788 22.887732 7.7771211
47.603561 22.616442 7.6844697
53.258541 22.878675 7.3059459
56.044235 22.907682 6.630281
29.369705 25.345339 9.3552732
32.738308 27.467995 7.6960526
38.891243 28.626705 9.919611
41.639595 28.214191 9.6528063
45.43681 25.038786 9.9328814
54.331852 27.422533 7.828476
56.067886 27.495695 7.5491085
32.61644 32.393471 7.6199136
39.595062 31.866629 9.8678493
41.630676 31.080496 9.6761713
47.841202 34.347691 8.4800043
54.552586 32.48357 7.430531
56.086056 32.550869 7.602725
29.546244 39.384102 7.5897832
31.834297 37.491657 7.5997224
44.877235 36.335907 9.0221224
47.626865 37.724346 7.0434628
53.826626 37.330894 7.7919812
56.100689 37.432079 7.4980836
24.519451 44.490517 7.2179909
27.597265 42.538914 7.5639358
30.719053 40.691975 7.3464842
48.275375 40.087452 7.2585487
54.553219 42.204647 7.6160407
56.069504 42.515705 7.5584602
19.585474 49.461929 7.6563106
22.561037 47.62215 7.5171943
25.855978 45.475254 7.3561163
54.592175 47.296402 7.7707162
56.055756 47.506359 7.587132
14.496251 54.489182 7.7153335
17.639561 52.490345 7.4765015
20.747143 50.77354 7.4997845
54.604439 52.166935 7.641881
56.052689 52.487587 7.605823
9.518651 59.477993 7.5889516
12.583075 57.554367 7.54387
15.818731 55.644402 7.3489051
22.243385 59.684994 7.9614744
48.202785 59.618912 8.3881292
54.605251 57.228546 7.6707735
56.031338 57.54702 7.4793029
4.2773981 64.655838 7.5323625
7.571044 62.542744 7.4850111
10.997381 61.366276 7.9755492
19.380537 62.783443 8.7509556
22.089703 62.68446 6.7968144
25.436468 62.3484 8.3285732
44.934551 62.607414 9.7750721
47.355659 62.713596 6.694056
53.569653 62.409416 7.6998076
56.069401 62.49081 7.479836
-0.15037113 69.566864 6.0171871
2.65853 67.673973 7.4882226
5.7779541 65.636696 7.4190774
12.961262 66.406754 9.7632332
22.483803 65.323303 8.2914858
48.546841 65.554283 8.2863064
54.56802 67.485809 7.3892117
56.062336 67.451225 7.5148249
-0.31152281 72.862244 7.7074122
1.5490826 72.570213 7.5027356
7.5859451 71.73317 7.4055781
12.518685 71.56469 7.7104311
17.382233 71.496979 7.5996037
22.357122 71.50074 7.6715741
27.530987 71.506454 7.5169797
32.592922 71.445038 7.7971363
37.734138 71.511734 7.7491961
42.963707 72.451691 7.4643431
45.145538 72.952995 8.415658
54.572147 72.484169 6.9698591
56.046455 72.602646 7.4288111
-0.38942543 77.446983 7.6600199
1.6704307 77.659431 7.5935917
8.4123468 77.466904 5.0896573
12.981682 77.229004 5.1287284
18.019697 77.438492 5.0719957
21.354872 77.85096 5.1546679
26.732502 77.5112 5.0265689
31.326622 76.912994 5.0108318
44.130684 77.675087 7.8763466
45.279324 77.567383 7.9665666
53.714878 78.203194 7.4528699
56.034096 77.405518 7.3414817
-0.36214966 82.364044 7.5676618
1.8077435 82.542374 7.4426069
8.367177 82.565804 5.185555
13.232081 82.463997 5.1968789
17.252718 82.671753 5.1690831
22.279734 82.751884 5.2265983
27.628462 82.564461 5.1408372
32.55257 82.654907 5.1296926
37.485512 83.346146 5.2255249
44.084549 82.20269 8.1494923
46.953701 82.477371 7.4279366
51.587887 81.653343 6.669034
55.882969 80.835121 5.3822417
-0.37931526 87.299118 7.7602773
1.8311256 87.408203 7.4626203
8.2290955 87.520721 5.1933899
13.01959 87.542946 5.215786
17.72872 87.501236 5.1841984
22.228874 87.055786 5.2416973
27.510735 87.450653 5.169939
32.252075 87.435219 5.150208
35.854916 87.235802 5.2422681
44.02338 87.810768 7.7104211
46.306488 86.627739 7.5820141
52.766201 87.534836 7.4848046
56.045681 88.760223 7.315681
-0.37212595 92.396042 7.481812
1.7794851 92.479065 7.4483957
7.9931641 92.483627 5.2244239
12.333359 92.808548 5.2446218
17.346792 92.476151 5.2373414
22.436642 92.458206 5.2622957
27.714668 92.688591 5.2292881
31.300947 92.308067 5.2083716
36.412598 92.699196 5.3411727
44.032917 92.49662 7.6774683
45.312958 92.263977 7.6277328
54.655807 92.5998 7.5323391
56.055244 92.391708 7.4513307
-0.36906999 96.815269 6.8593059
2.1316373 97.512642 7.2731586
6.9785552 97.4338 5.6498117
12.417159 97.70578 5.288229
17.622961 97.36235 5.2404184
22.505714 97.505646 5.3172255
27.211294 97.322777 5.2892594
36.543808 97.91375 5.2701659
43.983242 97.368431 7.4808822
45.32267 96.79435 8.450695
54.634056 97.54834 7.6651158
55.995888 97.426117 7.6215401
-0.43401837 100.71378 5.4262977
2.5484571 101.5915 5.863657
7.5232091 102.46689 5.2357874
12.228366 102.53872 5.2559948
17.719561 102.70994 5.2264476
22.659311 102.50421 5.2698011
27.162954 102.33255 5.2163162
36.68364 102.363 5.240622
43.968884 102.39153 7.5172691
47.871788 103.42502 9.7297821
54.275063 102.61958 7.854598
56.033691 102.54993 7.5874753
3.171196 107.55697 5.3565617
7.5032201 107.37698 5.2612872
12.263641 107.28473 5.2836432
17.47658 107.56107 5.294589
22.631031 107.56338 5.3144045
27.370502 107.91487 5.3010273
32.157532 108.32076 5.1603422
36.087997 107.26041 5.3049541
44.019611 107.50026 7.5181785
49.587933 106.86121 9.8505945
54.548775 107.57381 7.6364384
56.036968 107.45543 7.6720009
-0.22921365 113.8053 5.6816945
2.4613559 113.41893 5.8167763
7.7354779 112.50858 5.238029
12.325063 112.5507 5.2177706
17.493391 112.77116 5.2647905
22.938629 112.77119 5.2707443
27.749084 112.93874 5.228467
32.145809 112.80431 5.1470265
36.764458 113.31223 5.2232285
43.926487 112.44678 7.5907249
47.488899 113.28853 7.2898402
54.148281 112.71479 7.5543747
56.036911 112.46966 7.629138
-0.39846429 118.05361 7.0432038
1.8984184 117.81364 7.2960911
7.4154587 118.23194 6.0963316
12.62653 118.37973 5.9558897
17.440527 118.1136 5.6713891
22.396912 118.30086 5.9851274
27.529203 118.56962 5.9945774
32.539223 118.86553 6.2576065
37.307823 119.22556 6.7756577
43.682011 117.55451 7.5875068
47.307281 117.0765 7.0879769
54.180141 117.36984 7.5321889
56.048416 117.56733 7.6213598
-0.37168777 121.19283 7.8134265
2.4288664 122.90746 7.4942589
7.3975091 123.31992 7.5535307
12.462159 123.37314 7.4933395
17.564518 123.31351 7.4564314
22.585592 123.4296 7.5218368
27.425879 123.38181 7.50881
32.426716 123.61562 7.473434
37.297455 123.61567 7.5489359
42.529522 123.9433 7.5011606
47.586514 124.53284 7.4732957
52.943054 123.67633 7.4801216
55.848015 121.72221 7.4922752
3.7736266 125.02374 5.5302663
7.7774591 125.0406 7.4153166
12.605309 125.04062 7.4155412
17.43317 125.04065 7.4159889
22.260984 125.04066 7.4159875
27.912035 125.03772 7.417213
32.969997 125.04703 7.6974773
37.210178 125.03964 7.4301367
42.220058 125.03775 7.4212513
47.365627 125.04064 7.4159856
52.199974 125.0351 9.077116
28.748327 3.9420207 12.759879
32.586643 2.7287204 12.50093
37.514107 0.88125986 12.669792
42.535667 0.76125759 12.707491
47.579544 0.91970456 12.592105
52.65126 1.755963 12.566137
55.885727 3.4550302 12.431951
28.526144 7.3173699 12.788158
31.763824 7.8604779 12.911017
37.43137 7.4605632 14.116378
42.602249 7.1478648 14.372683
47.700375 6.9759641 14.407321
52.589767 6.393693 14.215943
55.970192 5.8733044 14.014333
28.547354 12.566139 12.54087
31.805082 12.197323 13.120737
37.481697 12.34059 14.170495
42.577621 12.759381 14.362276
47.494572 12.690902 13.798326
52.852386 13.175507 13.259933
55.918835 13.798601 12.775498
28.495987 17.391018 12.637812
31.954855 17.79458 13.414089
37.548126 17.547781 14.111779
42.371147 17.347406 14.245482
47.659958 17.030346 13.742941
52.783077 16.586859 13.161345
56.021885 16.150272 13.116341
28.565342 22.605497 12.761163
31.942272 22.135426 13.139501
37.344357 22.568514 14.16666
42.265823 22.747126 14.618986
47.470837 22.714478 14.512394
52.799923 23.643471 13.707844
56.001694 24.138796 13.52954
28.824276 25.875298 12.922537
32.392624 27.463118 12.697798
37.798981 27.925911 13.095576
42.209885 27.888771 13.246312
47.59412 26.915716 13.952377
53.547974 26.929342 13.234155
56.028629 27.49482 12.61184
32.609348 32.532612 12.756509
37.704132 32.532829 12.740783
42.327011 32.46019 12.850051
47.486511 33.308872 13.700943
53.385254 32.759102 13.284086
56.05547 32.475605 12.631942
29.492489 39.43309 12.565245
31.964949 37.557747 12.742086
37.659531 37.461643 14.723612
42.617233 37.413681 14.63961
46.936073 38.57814 12.977095
52.676891 37.38184 13.238426
56.084152 37.398315 12.607421
24.511681 44.401943 12.335829
27.631813 42.595806 12.621593
31.818735 41.80899 13.705937
37.41127 42.564095 14.672734
42.322109 42.725163 14.66481
47.301941 42.122334 14.463261
53.757557 42.527092 13.480679
56.028439 42.503593 12.551108
19.562971 49.503162 12.371371
22.587366 47.639359 12.673191
26.729752 46.641209 13.634171
32.491932 47.680916 14.733773
37.577831 47.463055 14.687871
42.480618 47.701187 14.69446
47.401714 47.464386 14.676868
53.767872 47.42865 13.44531
56.09724 47.501923 12.593022
14.618794 54.378735 12.361863
17.651562 52.615387 12.509761
21.763374 51.628628 13.673685
27.506136 52.515636 14.741653
32.403687 52.568699 14.703526
37.610107 52.462429 14.676301
42.611267 52.492512 14.698421
47.498375 52.365669 14.671694
53.779942 52.456329 13.517676
56.045139 52.407013 12.591763
9.5296154 59.593834 12.081425
12.575139 57.639954 12.638624
16.863966 56.782139 13.642547
22.700651 58.403011 13.759559
27.380718 57.458801 14.683403
32.694405 57.555717 14.7289
37.713886 57.423931 14.723289
42.642395 57.529194 14.701662
47.744923 58.298435 13.788836
53.557529 57.616131 13.538721
56.054005 57.475574 12.524845
4.3219948 64.663422 12.632988
7.8201947 62.693829 12.645114
12.295259 62.321575 12.87264
18.037827 62.384369 13.732115
22.124691 63.483643 12.89736
26.675272 62.31744 13.969574
32.743923 62.516731 14.700491
37.848526 62.566753 14.701016
42.735851 62.483646 14.623365
46.232403 62.85918 12.793624
52.696892 62.314892 13.280738
56.063305 62.505615 12.510984
-0.083528638 69.473213 14.551366
2.7604408 67.614883 12.586908
7.3484874 66.891014 12.854103
12.69875 68.132645 12.425716
16.748371 67.055649 14.214974
22.614536 66.550949 13.878324
27.256166 67.499626 14.698868
32.592209 67.503998 14.72188
37.895401 67.71386 14.708884
42.550194 67.655685 14.707703
47.681198 66.515991 13.77161
53.486588 67.43782 13.515929
56.023003 67.470177 12.518177
-0.32727489 72.730591 12.60562
1.8453066 72.470009 12.746545
7.6540928 71.087181 12.900091
12.474787 71.030777 12.864869
17.536869 71.021835 12.583082
22.52232 70.985085 12.76003
27.498955 71.007256 12.67122
32.578102 71.069077 12.574518
37.492687 71.074661 12.743999
42.95578 71.869171 12.68308
46.550945 72.43058 13.933093
53.568443 72.511147 13.274732
55.987717 72.546692 12.369327
-0.33099121 77.51136 13.011127
1.8423005 77.541824 12.746523
44.185852 77.423141 12.584179
46.455544 77.370758 13.882257
53.407536 77.929581 12.920012
55.964344 77.463905 12.483541
-0.35319453 82.470016 12.793196
1.8901573 82.579292 12.71481
44.1628 82.408073 12.39875
46.63715 82.645393 13.394814
52.602356 82.332016 13.376314
55.963425 82.337029 13.716944
-0.35661528 87.439323 12.724836
1.9095372 87.495544 12.643279
44.145161 87.43615 12.296558
46.353146 87.510796 13.656849
53.096924 87.345238 12.90729
56.048077 87.862785 12.89078
-0.3588067 92.591286 12.660678
1.8631262 92.608597 12.675103
44.164268 92.478287 12.377313
46.395439 92.70504 13.76919
53.769924 92.471619 13.394281
56.013683 92.441986 12.438342
-0.25845331 95.332153 11.756903
2.3720791 95.946526 12.110907
5.0693612 96.090836 12.112858
44.164043 97.493889 12.32533
46.388287 97.668159 13.789355
53.763065 97.464127 13.351451
56.03466 97.455856 12.637927
44.169624 102.65772 12.298903
46.995228 102.39577 12.772676
53.114864 102.55166 12.94136
56.012253 102.53696 12.52597
44.218544 107.44498 12.239303
47.045029 107.4052 12.835408
53.223618 107.37084 12.819307
56.036087 107.49903 12.805673
44.193665 112.19782 12.368768
47.001137 112.40199 13.441486
53.29845 112.93269 13.203304
56.005768 112.46436 12.676255
-0.39945662 119.25623 10.470793
2.2574408 119.32503 11.826205
6.6729856 119.65027 11.86525
11.874529 119.8303 11.774168
17.037222 119.8855 11.349524
22.556133 119.88448 11.298907
27.213266 119.9084 11.730733
32.297554 119.89482 11.927255
37.802116 119.82236 11.893977
44.10202 117.42328 12.341016
46.904346 117.96707 13.29595
53.258747 117.21554 13.126897
55.92894 117.58038 12.672855
-0.38138178 120.88071 12.306891
2.4991469 122.51717 12.7511
7.4865189 123.09563 12.630754
12.454218 123.15641 12.735534
17.519527 123.15739 12.671783
22.506746 123.22359 12.678752
27.441822 123.16855 12.675607
32.4258 123.30101 12.673097
37.510124 123.30904 12.693639
42.32206 123.5693 12.697717
47.410282 124.17395 12.794506
52.850517 123.55793 12.592987
55.846054 121.77746 12.642187
6.8831015 125.03062 13.198559
18.741226 125.03383 14.156536
22.84465 125.0342 11.625426
28.379778 125.04282 13.228593
33.281616 125.04645 12.125936
37.607746 125.05032 12.949385
42.662956 125.04453 12.844692
48.135624 125.03357 13.647186
28.83205 3.7249949 16.086241
32.680443 3.1481428 16.204605
37.559757 2.3067839 16.238091
42.464043 2.4297812 16.263865
47.491692 2.327316 16.339186
52.397781 2.5232685 16.270546
55.935608 3.6703572 15.992822
28.706707 7.4366941 16.190393
32.437359 7.4161754 16.313534
37.578159 7.4598141 16.351648
42.476376 7.3943424 16.331879
47.497646 7.379704 16.332382
52.528625 7.4919286 16.315374
55.954071 7.183785 16.279356
28.71911 12.567815 16.190346
32.475151 12.393249 16.377321
37.49395 12.465856 16.352421
42.475811 12.346086 16.299759
47.607006 12.306007 16.385654
52.552769 12.323719 16.296671
55.995258 12.508187 16.210867
28.68786 17.53454 16.134821
32.558464 17.431564 16.305578
37.570717 17.460892 16.381065
42.528942 17.447512 16.308643
47.610226 17.5506 16.365618
52.513241 17.636389 16.297161
55.942654 17.549099 16.213631
28.67462 22.451954 16.148642
32.581612 22.53966 16.353304
37.535961 22.48028 16.366432
42.617512 22.502714 16.31926
47.621033 22.506014 16.353334
52.529964 22.397179 16.262951
56.043564 22.504572 16.249109
28.687712 25.85607 16.166513
32.903362 27.324886 16.319513
37.145691 27.070221 16.278637
42.905022 26.973923 16.253428
47.601421 27.455482 16.378136
52.491619 27.434238 16.407993
55.956028 27.545164 16.246038
33.124714 32.397541 16.257963
36.6642 33.038979 16.290869
43.450317 33.049446 16.239227
47.474377 32.052895 16.251629
52.500042 32.447723 16.343899
55.976902 32.490242 16.337952
29.670826 39.381523 15.828108
32.806347 37.500534 16.238602
37.501583 37.506157 16.390322
42.507683 37.521957 16.344608
46.212326 38.211468 16.143435
52.951508 37.670094 16.298182
55.954426 37.312923 16.237598
24.699059 44.363094 15.940613
28.074308 42.987755 16.207726
32.439102 42.402843 16.359875
37.569904 42.545273 16.320562
42.619576 42.475403 16.326841
47.580116 42.535755 16.319683
52.503956 42.456905 16.368851
56.009266 42.408352 16.125732
19.283739 49.378536 15.587789
23.064062 48.006004 16.231909
27.58655 47.489883 16.250013
32.427395 47.605221 16.377234
37.522152 47.496834 16.371922
42.63839 47.472271 16.37178
47.564404 47.540867 16.400251
52.52306 47.460297 16.411926
55.968712 47.461487 16.198067
14.512476 54.528893 15.922575
18.075947 53.005424 16.179783
22.503868 52.515388 16.32773
27.518005 52.50708 16.285349
32.444016 52.568741 16.374071
37.541729 52.461269 16.270275
42.609814 52.478298 16.337227
47.594299 52.493061 16.345798
52.515278 52.500259 16.321352
55.996086 52.371536 16.131983
9.5208445 59.573395 16.381891
12.986029 58.017406 16.21846
17.444826 57.533657 16.186964
22.43858 57.309849 16.218491
27.596222 57.529808 16.241995
32.480206 57.453617 16.3493
37.554932 57.484734 16.367128
42.656349 57.471645 16.334314
47.495995 57.325439 16.328087
52.571819 57.479984 16.309601
55.973907 57.506828 16.14922
4.1866016 64.63224 16.04233
7.946672 62.784912 16.17387
12.744026 61.556156 16.17333
17.444765 62.54924 16.223446
20.954777 63.242966 16.201298
27.918995 62.593422 16.107073
32.415241 62.481709 16.378653
37.482693 62.49128 16.328098
42.493542 62.510204 16.310665
45.703289 62.682877 16.089993
53.060913 62.613564 16.198032
56.072102 62.372627 16.088535
3.3709137 67.955688 16.114971
7.1747098 67.791122 16.177227
13.054525 68.964523 16.048882
17.603617 67.453514 16.184111
22.504293 67.630333 16.205442
27.493828 67.476433 16.20063
32.410999 67.526924 16.336273
37.505459 67.467491 16.305601
42.578651 67.511749 16.320387
47.506367 67.562401 16.319418
52.599243 67.484489 16.229189
56.075733 67.37249 16.087511
-0.36109728 72.78849 16.033573
2.2287614 72.221695 16.115898
7.5873556 70.683228 16.119877
12.077352 70.604378 16.151791
17.591852 70.521385 15.962742
22.781296 70.552261 16.159582
27.737364 70.520897 16.100615
32.399773 70.562218 15.979048
37.555088 70.520561 16.148254
42.832237 70.981453 16.229162
47.504787 72.592514 16.361868
52.564709 72.517067 16.246914
56.061771 72.523209 16.102104
-0.34841242 77.261452 16.2244
1.8912652 77.50869 16.122164
44.430542 77.434181 15.887872
47.532539 77.498055 16.289122
52.623531 77.461609 16.255537
56.106464 77.477638 16.082508
-0.34215742 82.633652 16.158953
1.8810459 82.51915 16.195374
44.409534 82.502487 15.784616
47.574799 82.467499 16.332188
52.598877 82.380096 16.266655
55.974075 82.29892 16.070883
-0.39867198 87.238808 15.976833
1.8221506 87.553238 16.091999
44.452602 87.561562 15.99807
47.543907 87.544647 16.239382
52.576687 87.376053 16.211735
56.057529 87.431229 16.060869
-0.36311802 92.515137 16.255585
1.8051034 92.549789 16.102894
44.497787 92.53157 15.912479
47.54097 92.479202 16.268061
52.575706 92.460976 16.292387
56.020916 92.40332 16.066437
1.9337367 95.51709 15.922258
44.608093 97.524178 15.965874
47.580078 97.548737 16.242207
52.579689 97.420998 16.260384
55.992294 97.568634 16.0516
44.587086 102.46058 15.903492
46.727806 101.83553 16.123768
53.216988 101.99212 16.176613
55.92099 102.52322 16.150408
44.619282 107.64489 15.968296
47.051247 108.19521 16.228422
53.071915 107.95059 16.216953
56.010914 107.30077 16.184572
44.620987 112.84592 15.637661
47.181492 111.56713 16.08157
52.852489 112.33587 16.156733
55.996872 112.4386 16.319595
2.2086701 119.78709 16.281382
44.598717 117.79865 15.763844
47.041039 118.52283 16.118168
52.952282 117.70831 16.190226
56.003902 117.53725 16.255676
-0.26082483 121.39674 15.877906
2.7328532 122.35491 15.98142
7.4927778 123.0108 16.005636
12.508838 123.06601 16.069168
17.409777 123.15173 16.071766
22.416052 123.07786 16.075571
27.470276 123.07034 16.042961
32.517265 123.14707 16.0483
37.429199 123.08199 16.075302
42.474037 123.09979 16.103935
47.640106 122.82929 16.156048
52.595848 122.70912 16.119169
55.869007 121.67504 16.207817
4.5416632 125.02729 15.791615
8.7533569 125.04349 15.973149
12.55055 125.06814 16.865725
15.993929 125.06029 15.896296
21.287731 125.01839 16.562502
25.875866 125.06065 16.127329
32.400036 125.06223 16.393686
38.177067 125.04766 16.051888
42.517532 125.0641 16.200573
46.228409 125.02188 17.270792
