# .PCD v0.7 - Point Cloud Data file format
VERSION 0.7
FIELDS x y z
SIZE 4 4 4
TYPE F F F
COUNT 1 1 1
WIDTH 1351
HEIGHT 1
VIEWPOINT 0 0 0 1 0 0 0
POINTS 1351
DATA ascii
0.062052637 0.0047022416 0.33800003
0.063128866 0.0047161533 0.33900002
0.064210363 0.0047300649 0.34
0.065488614 0.0047578891 0.34200001
0.066583283 0.0047718012 0.34300002
0.067486458 0.0047718012 0.34300002
0.068788409 0.0047996254 0.34500003
0.069898866 0.004813537 0.34600002
0.071219251 0.0048413607 0.34800002
0.073891617 0.0048970091 0.35200003
0.075243585 0.0049248324 0.354
0.076606102 0.0049526566 0.35600001
0.078196973 0.0049943924 0.35900003
0.079583183 0.0050222166 0.36100003
0.080979921 0.0050500403 0.36300001
-0.037756424 0.0049139019 0.29700002
-0.03697437 0.0049139019 0.29700002
-0.03619232 0.0049139019 0.29700002
-0.03541027 0.0049139019 0.29700002
-0.03462822 0.0049139019 0.29700002
-0.03384617 0.0049139019 0.29700002
-0.033064116 0.0049139019 0.29700002
-0.032390758 0.0049304469 0.29800001
-0.031606074 0.0049304469 0.29800001
-0.03082139 0.0049304469 0.29800001
-0.030036708 0.0049304469 0.29800001
-0.029350188 0.0049469923 0.29900002
-0.028562872 0.0049469923 0.29900002
-0.027775554 0.0049469923 0.29900002
-0.027078496 0.0049635367 0.30000001
-0.026288548 0.0049635367 0.30000001
-0.025583595 0.0049800822 0.30100003
-0.02479101 0.0049800822 0.30100003
-0.023998428 0.0049800822 0.30100003
-0.02328294 0.0049966271 0.30200002
-0.022487722 0.0049966271 0.30200002
-0.021692507 0.0049966271 0.30200002
-0.020966485 0.005013172 0.303
-0.020168636 0.005013172 0.303
-0.019370787 0.005013172 0.303
-0.018572938 0.005013172 0.303
-0.017775089 0.005013172 0.303
-0.01703327 0.0050297175 0.30400002
-0.016232787 0.0050297175 0.30400002
-0.015432304 0.0050297175 0.30400002
-0.014631822 0.0050297175 0.30400002
-0.013876837 0.0050462624 0.30500001
-0.01307372 0.0050462624 0.30500001
-0.012270604 0.0050462624 0.30500001
-0.011467488 0.0050462624 0.30500001
-0.010664372 0.0050462624 0.30500001
-0.0098935887 0.0050628078 0.30600002
-0.0090878401 0.0050628078 0.30600002
-0.0082820915 0.0050628078 0.30600002
-0.0075007742 0.0050793528 0.30700001
-0.0066923923 0.0050793528 0.30700001
-0.0058840099 0.0050793528 0.30700001
-0.0050921612 0.0050958982 0.30800003
-0.004295045 0.0051124431 0.30900002
-0.0034926631 0.0051289881 0.31
-0.0026850151 0.0051455335 0.31100002
-0.0018721006 0.0051620784 0.31200001
-0.0010539197 0.0051786238 0.31300002
-0.00023047248 0.0051951688 0.31400001
0.00059824111 0.0052117142 0.31500003
0.0014322209 0.0052282591 0.31600001
0.0022643015 0.0052282591 0.31600001
0.0030963824 0.0052282591 0.31600001
0.003928463 0.0052282591 0.31600001
0.0047605438 0.0052282591 0.31600001
0.0055926247 0.0052282591 0.31600001
0.006424705 0.0052282591 0.31600001
0.0072567859 0.0052282591 0.31600001
0.0080632698 0.0052117142 0.31500003
0.0088927168 0.0052117142 0.31500003
0.0097221648 0.0052117142 0.31500003
0.01224927 0.0052282591 0.31600001
0.01308135 0.0052282591 0.31600001
0.01395746 0.0052448041 0.317
0.014792175 0.0052448041 0.317
0.015626889 0.0052448041 0.317
0.016513532 0.0052613495 0.31800002
0.017350879 0.0052613495 0.31800002
0.018188227 0.0052613495 0.31800002
0.019085402 0.005277894 0.31900001
0.019925382 0.005277894 0.31900001
0.020765362 0.005277894 0.31900001
0.02167307 0.0052944394 0.32000002
0.022515684 0.0052944394 0.32000002
0.023431294 0.0053109843 0.32100001
0.024276538 0.0053109843 0.32100001
0.025121786 0.0053109843 0.32100001
0.025967032 0.0053109843 0.32100001
0.026812278 0.0053109843 0.32100001
0.027743686 0.0053275297 0.32200003
0.028591568 0.0053275297 0.32200003
0.029439446 0.0053275297 0.32200003
0.030287325 0.0053275297 0.32200003
0.031135207 0.0053275297 0.32200003
0.032082409 0.0053440747 0.32300001
0.032932922 0.0053440747 0.32300001
0.033783436 0.0053440747 0.32300001
0.034741174 0.0053606196 0.324
0.035594322 0.0053606196 0.324
0.036559958 0.005377165 0.32500002
0.037415739 0.005377165 0.32500002
0.038389277 0.00539371 0.32600001
0.039368082 0.0054102554 0.32700002
0.040352151 0.0054268003 0.32800001
0.041215826 0.0054268003 0.32800001
0.0422078 0.0054433458 0.32900003
0.043074112 0.0054433458 0.32900003
0.04407398 0.0054598907 0.33000001
0.044942927 0.0054598907 0.33000001
0.045811869 0.0054598907 0.33000001
0.046680816 0.0054598907 0.33000001
0.047693852 0.0054764361 0.33100003
0.048565432 0.0054764361 0.33100003
0.049437013 0.0054764361 0.33100003
0.050460577 0.0054929811 0.33200002
0.051489405 0.005509526 0.333
0.052366249 0.005509526 0.333
0.05340299 0.0055260714 0.33400002
0.054282468 0.0055260714 0.33400002
0.055327099 0.0055426164 0.33500001
0.056376997 0.0055591618 0.33600003
0.057261743 0.0055591618 0.33600003
0.058319539 0.0055757067 0.33700001
0.059206918 0.0055757067 0.33700001
0.060272619 0.0055922517 0.33800003
0.061162632 0.0055922517 0.33800003
0.062236223 0.0056087966 0.33900002
0.063128866 0.0056087966 0.33900002
0.064021513 0.0056087966 0.33900002
0.064914159 0.0056087966 0.33900002
0.066000916 0.0056253416 0.34
0.067092955 0.005641887 0.34100002
0.068190239 0.0056584319 0.34200001
0.069494829 0.0056915223 0.34400001
0.070605293 0.0057080677 0.34500003
0.071928307 0.0057411576 0.347
0.07776133 0.0059066089 0.35700002
0.080756836 0.0059893345 0.36200002
-0.037756424 0.0056959526 0.29700002
-0.03697437 0.0056959526 0.29700002
-0.03619232 0.0056959526 0.29700002
-0.03541027 0.0056959526 0.29700002
-0.03462822 0.0056959526 0.29700002
-0.03384617 0.0056959526 0.29700002
-0.033064116 0.0056959526 0.29700002
-0.032390758 0.0057151304 0.29800001
-0.031606074 0.0057151304 0.29800001
-0.03082139 0.0057151304 0.29800001
-0.030036708 0.0057151304 0.29800001
-0.029350188 0.0057343091 0.29900002
-0.028562872 0.0057343091 0.29900002
-0.027775554 0.0057343091 0.29900002
-0.027078496 0.0057534873 0.30000001
-0.026288548 0.0057534873 0.30000001
-0.025583595 0.0057726656 0.30100003
-0.02479101 0.0057726656 0.30100003
-0.023998428 0.0057726656 0.30100003
-0.02328294 0.0057918439 0.30200002
-0.022487722 0.0057918439 0.30200002
-0.021692507 0.0057918439 0.30200002
-0.02089729 0.0057918439 0.30200002
-0.020168636 0.0058110221 0.303
-0.019370787 0.0058110221 0.303
-0.018572938 0.0058110221 0.303
-0.017775089 0.0058110221 0.303
-0.01703327 0.0058302004 0.30400002
-0.016232787 0.0058302004 0.30400002
-0.015432304 0.0058302004 0.30400002
-0.014631822 0.0058302004 0.30400002
-0.013876837 0.0058493786 0.30500001
-0.01307372 0.0058493786 0.30500001
-0.012270604 0.0058493786 0.30500001
-0.011467488 0.0058493786 0.30500001
-0.010664372 0.0058493786 0.30500001
-0.0098935887 0.0058685574 0.30600002
-0.0090878401 0.0058685574 0.30600002
-0.0082820915 0.0058685574 0.30600002
-0.0075007742 0.0058877352 0.30700001
-0.0066923923 0.0058877352 0.30700001
-0.0058840099 0.0058877352 0.30700001
-0.0050921612 0.0059069139 0.30800003
-0.004295045 0.0059260917 0.30900002
-0.0034926631 0.0059452699 0.31
-0.0026850151 0.0059644487 0.31100002
-0.001878101 0.0060028052 0.31300002
-0.0010572869 0.0060219835 0.31400001
-0.00023120648 0.0060411617 0.31500003
0.00059824111 0.0060411617 0.31500003
0.0014322209 0.00606034 0.31600001
0.0022643015 0.00606034 0.31600001
0.0030963824 0.00606034 0.31600001
0.003928463 0.00606034 0.31600001
0.0047605438 0.00606034 0.31600001
0.0055926247 0.00606034 0.31600001
0.0064043738 0.0060411617 0.31500003
0.0072338218 0.0060411617 0.31500003
0.0080632698 0.0060411617 0.31500003
0.0088927168 0.0060411617 0.31500003
0.0097221648 0.0060411617 0.31500003
0.010551612 0.0060411617 0.31500003
0.011417189 0.00606034 0.31600001
0.01224927 0.00606034 0.31600001
0.01308135 0.00606034 0.31600001
0.013913431 0.00606034 0.31600001
0.014792175 0.0060795178 0.317
0.015626889 0.0060795178 0.317
0.016513532 0.0060986965 0.31800002
0.017350879 0.0060986965 0.31800002
0.018188227 0.0060986965 0.31800002
0.019085402 0.0061178748 0.31900001
0.019925382 0.0061178748 0.31900001
0.020765362 0.0061178748 0.31900001
0.02167307 0.006137053 0.32000002
0.022515684 0.006137053 0.32000002
0.023358298 0.006137053 0.32000002
0.024276538 0.0061562313 0.32100001
0.025121786 0.0061562313 0.32100001
0.025967032 0.0061562313 0.32100001
0.026812278 0.0061562313 0.32100001
0.027657526 0.0061562313 0.32100001
0.028591568 0.00617541 0.32200003
0.029439446 0.00617541 0.32200003
0.030287325 0.00617541 0.32200003
0.031135207 0.00617541 0.32200003
0.032082409 0.0061945878 0.32300001
0.032932922 0.0061945878 0.32300001
0.033783436 0.0061945878 0.32300001
0.034741174 0.0062137661 0.324
0.035704181 0.0062329448 0.32500002
0.036559958 0.0062329448 0.32500002
0.037415739 0.0062329448 0.32500002
0.038389277 0.0062521226 0.32600001
0.039368082 0.0062713013 0.32700002
0.040352151 0.0062904791 0.32800001
0.041215826 0.0062904791 0.32800001
0.0422078 0.0063096578 0.32900003
0.043074112 0.0063096578 0.32900003
0.04407398 0.0063288361 0.33000001
0.044942927 0.0063288361 0.33000001
0.045811869 0.0063288361 0.33000001
0.046680816 0.0063288361 0.33000001
0.047693852 0.0063480143 0.33100003
0.048565432 0.0063480143 0.33100003
0.049437013 0.0063480143 0.33100003
0.050460577 0.0063671926 0.33200002
0.051489405 0.0063863704 0.333
0.052366249 0.0063863704 0.333
0.05340299 0.0064055491 0.33400002
0.054282468 0.0064055491 0.33400002
0.055327099 0.0064247274 0.33500001
0.056376997 0.0064439061 0.33600003
0.057261743 0.0064439061 0.33600003
0.058319539 0.0064630839 0.33700001
0.059206918 0.0064630839 0.33700001
0.060272619 0.0064822626 0.33800003
0.061162632 0.0064822626 0.33800003
0.062052637 0.0064822626 0.33800003
0.063128866 0.0065014404 0.33900002
0.064021513 0.0065014404 0.33900002
0.064914159 0.0065014404 0.33900002
0.065806799 0.0065014404 0.33900002
0.066896193 0.0065206187 0.34
0.067990862 0.0065397974 0.34100002
0.069090784 0.0065589752 0.34200001
0.070195988 0.0065781539 0.34300002
0.071306445 0.0065973317 0.34400001
0.072632097 0.0066356887 0.34600002
0.081935763 0.0069617191 0.36300001
-0.037756424 0.0064780028 0.29700002
-0.03697437 0.0064780028 0.29700002
-0.03619232 0.0064780028 0.29700002
-0.03541027 0.0064780028 0.29700002
-0.03462822 0.0064780028 0.29700002
-0.03384617 0.0064780028 0.29700002
-0.033064116 0.0064780028 0.29700002
-0.032390758 0.0064998139 0.29800001
-0.031606074 0.0064998139 0.29800001
-0.03082139 0.0064998139 0.29800001
-0.030036708 0.0064998139 0.29800001
-0.029350188 0.0065216259 0.29900002
-0.028562872 0.0065216259 0.29900002
-0.027775554 0.0065216259 0.29900002
-0.027078496 0.006543437 0.30000001
-0.026288548 0.006543437 0.30000001
-0.025583595 0.0065652486 0.30100003
-0.02479101 0.0065652486 0.30100003
-0.023998428 0.0065652486 0.30100003
-0.02328294 0.0065870597 0.30200002
-0.022487722 0.0065870597 0.30200002
-0.021692507 0.0065870597 0.30200002
-0.020966485 0.0066088713 0.303
-0.020168636 0.0066088713 0.303
-0.019370787 0.0066088713 0.303
-0.018572938 0.0066088713 0.303
-0.017833753 0.0066306829 0.30400002
-0.01703327 0.0066306829 0.30400002
-0.016232787 0.0066306829 0.30400002
-0.015432304 0.0066306829 0.30400002
-0.014679952 0.006652494 0.30500001
-0.013876837 0.006652494 0.30500001
-0.01307372 0.006652494 0.30500001
-0.012270604 0.006652494 0.30500001
-0.011467488 0.006652494 0.30500001
-0.010699338 0.006674306 0.30600002
-0.0098935887 0.006674306 0.30600002
-0.0090878401 0.006674306 0.30600002
-0.0082820915 0.006674306 0.30600002
-0.0075007742 0.0066961171 0.30700001
-0.0066923923 0.0066961171 0.30700001
-0.0058840099 0.0066961171 0.30700001
-0.0050921612 0.0067179287 0.30800003
-0.004295045 0.0067397403 0.30900002
-0.0034926631 0.0067615514 0.31
-0.0026850151 0.0067833629 0.31100002
-0.001878101 0.0068269861 0.31300002
-0.0010572869 0.0068487972 0.31400001
-0.00023120648 0.0068706092 0.31500003
0.00059824111 0.0068706092 0.31500003
0.0014322209 0.0068924204 0.31600001
0.0022643015 0.0068924204 0.31600001
0.0030963824 0.0068924204 0.31600001
0.003928463 0.0068924204 0.31600001
0.0047605438 0.0068924204 0.31600001
0.0055926247 0.0068924204 0.31600001
0.0064043738 0.0068706092 0.31500003
0.0072338218 0.0068706092 0.31500003
0.0080632698 0.0068706092 0.31500003
0.0088927168 0.0068706092 0.31500003
0.0097221648 0.0068706092 0.31500003
0.010551612 0.0068706092 0.31500003
0.011417189 0.0068924204 0.31600001
0.01224927 0.0068924204 0.31600001
0.01308135 0.0068924204 0.31600001
0.01395746 0.0069142315 0.317
0.014792175 0.0069142315 0.317
0.015626889 0.0069142315 0.317
0.016513532 0.006936043 0.31800002
0.017350879 0.006936043 0.31800002
0.018188227 0.006936043 0.31800002
0.019085402 0.0069578546 0.31900001
0.019925382 0.0069578546 0.31900001
0.020765362 0.0069578546 0.31900001
0.02167307 0.0069796662 0.32000002
0.022515684 0.0069796662 0.32000002
0.023358298 0.0069796662 0.32000002
0.024200911 0.0069796662 0.32000002
0.025121786 0.0070014773 0.32100001
0.025967032 0.0070014773 0.32100001
0.026812278 0.0070014773 0.32100001
0.027657526 0.0070014773 0.32100001
0.028502772 0.0070014773 0.32100001
0.029439446 0.0070232893 0.32200003
0.030287325 0.0070232893 0.32200003
0.031135207 0.0070232893 0.32200003
0.032082409 0.0070451004 0.32300001
0.032932922 0.0070451004 0.32300001
0.033888027 0.0070669116 0.324
0.034741174 0.0070669116 0.324
0.035594322 0.0070669116 0.324
0.036559958 0.0070887236 0.32500002
0.037530862 0.0071105347 0.32600001
0.038389277 0.0071105347 0.32600001
0.039368082 0.0071323463 0.32700002
0.040352151 0.0071541574 0.32800001
0.041215826 0.0071541574 0.32800001
0.0422078 0.0071759694 0.32900003
0.043074112 0.0071759694 0.32900003
0.04407398 0.0071977805 0.33000001
0.044942927 0.0071977805 0.33000001
0.045811869 0.0071977805 0.33000001
0.046680816 0.0071977805 0.33000001
0.047693852 0.0072195926 0.33100003
0.048565432 0.0072195926 0.33100003
0.049437013 0.0072195926 0.33100003
0.050460577 0.0072414037 0.33200002
0.051334783 0.0072414037 0.33200002
0.052366249 0.0072632148 0.333
0.053243097 0.0072632148 0.333
0.054282468 0.0072850264 0.33400002
0.055327099 0.0073068379 0.33500001
0.056376997 0.0073286495 0.33600003
0.057261743 0.0073286495 0.33600003
0.058319539 0.0073504606 0.33700001
0.05938261 0.0073722727 0.33800003
0.060272619 0.0073722727 0.33800003
0.061162632 0.0073722727 0.33800003
0.062236223 0.0073940838 0.33900002
0.063128866 0.0073940838 0.33900002
0.064021513 0.0073940838 0.33900002
0.064914159 0.0073940838 0.33900002
0.065806799 0.0073940838 0.33900002
0.066896193 0.0074158949 0.34
0.067791469 0.0074158949 0.34
0.068888769 0.0074377069 0.34100002
0.069991328 0.007459518 0.34200001
0.071099162 0.0074813296 0.34300002
0.072212256 0.0075031407 0.34400001
0.073543169 0.0075467639 0.34600002
0.081710048 0.0078957472 0.36200002
-0.03697437 0.0072600534 0.29700002
-0.03619232 0.0072600534 0.29700002
-0.03541027 0.0072600534 0.29700002
-0.03462822 0.0072600534 0.29700002
-0.03384617 0.0072600534 0.29700002
-0.033175442 0.0072844978 0.29800001
-0.032390758 0.0072844978 0.29800001
-0.031606074 0.0072844978 0.29800001
-0.03082139 0.0072844978 0.29800001
-0.030036708 0.0072844978 0.29800001
-0.029350188 0.0073089427 0.29900002
-0.028562872 0.0073089427 0.29900002
-0.027775554 0.0073089427 0.29900002
-0.027078496 0.0073333872 0.30000001
-0.026288548 0.0073333872 0.30000001
-0.025583595 0.007357832 0.30100003
-0.02479101 0.007357832 0.30100003
-0.023998428 0.007357832 0.30100003
-0.023205845 0.007357832 0.30100003
-0.022487722 0.0073822765 0.30200002
-0.021692507 0.0073822765 0.30200002
-0.020966485 0.0074067209 0.303
-0.020168636 0.0074067209 0.303
-0.019370787 0.0074067209 0.303
-0.018572938 0.0074067209 0.303
-0.017833753 0.0074311658 0.30400002
-0.01703327 0.0074311658 0.30400002
-0.016232787 0.0074311658 0.30400002
-0.015432304 0.0074311658 0.30400002
-0.014679952 0.0074556102 0.30500001
-0.013876837 0.0074556102 0.30500001
-0.01307372 0.0074556102 0.30500001
-0.012270604 0.0074556102 0.30500001
-0.011467488 0.0074556102 0.30500001
-0.010699338 0.0074800551 0.30600002
-0.0098935887 0.0074800551 0.30600002
-0.0090878401 0.0074800551 0.30600002
-0.0083091566 0.0075044995 0.30700001
-0.0075007742 0.0075044995 0.30700001
-0.0066923923 0.0075044995 0.30700001
-0.0058840099 0.0075044995 0.30700001
-0.0050921612 0.0075289444 0.30800003
-0.004295045 0.0075533888 0.30900002
-0.0034926631 0.0075778333 0.31
-0.0026850151 0.0076022781 0.31100002
-0.0018721006 0.0076267226 0.31200001
-0.0010572869 0.0076756119 0.31400001
-0.00023047248 0.0076756119 0.31400001
0.00059824111 0.0077000568 0.31500003
0.0014276886 0.0077000568 0.31500003
0.0022643015 0.0077245012 0.31600001
0.0030963824 0.0077245012 0.31600001
0.003928463 0.0077245012 0.31600001
0.0047605438 0.0077245012 0.31600001
0.0055926247 0.0077245012 0.31600001
0.0064043738 0.0077000568 0.31500003
0.0072338218 0.0077000568 0.31500003
0.0080632698 0.0077000568 0.31500003
0.0088927168 0.0077000568 0.31500003
0.0097221648 0.0077000568 0.31500003
0.010551612 0.0077000568 0.31500003
0.011381059 0.0077000568 0.31500003
0.01224927 0.0077245012 0.31600001
0.01308135 0.0077245012 0.31600001
0.013913431 0.0077245012 0.31600001
0.014792175 0.0077489456 0.317
0.015626889 0.0077489456 0.317
0.016461601 0.0077489456 0.317
0.017350879 0.0077733905 0.31800002
0.018188227 0.0077733905 0.31800002
0.019085402 0.0077978349 0.31900001
0.019925382 0.0077978349 0.31900001
0.020765362 0.0077978349 0.31900001
0.02167307 0.0078222798 0.32000002
0.022515684 0.0078222798 0.32000002
0.023358298 0.0078222798 0.32000002
0.024200911 0.0078222798 0.32000002
0.025121786 0.0078467242 0.32100001
0.025967032 0.0078467242 0.32100001
0.026812278 0.0078467242 0.32100001
0.027657526 0.0078467242 0.32100001
0.028502772 0.0078467242 0.32100001
0.029439446 0.0078711696 0.32200003
0.030287325 0.0078711696 0.32200003
0.031135207 0.0078711696 0.32200003
0.032082409 0.0078956131 0.32300001
0.032932922 0.0078956131 0.32300001
0.033783436 0.0078956131 0.32300001
0.034741174 0.0079200575 0.324
0.035594322 0.0079200575 0.324
0.036559958 0.0079445029 0.32500002
0.037530862 0.0079689473 0.32600001
0.038389277 0.0079689473 0.32600001
0.039368082 0.0079933926 0.32700002
0.040352151 0.0080178361 0.32800001
0.041215826 0.0080178361 0.32800001
0.0422078 0.0080422815 0.32900003
0.043074112 0.0080422815 0.32900003
0.043940425 0.0080422815 0.32900003
0.044942927 0.0080667259 0.33000001
0.045811869 0.0080667259 0.33000001
0.046680816 0.0080667259 0.33000001
0.047549758 0.0080667259 0.33000001
0.048565432 0.0080911713 0.33100003
0.049437013 0.0080911713 0.33100003
0.050460577 0.0081156148 0.33200002
0.051334783 0.0081156148 0.33200002
0.052366249 0.0081400592 0.333
0.053243097 0.0081400592 0.333
0.054282468 0.0081645045 0.33400002
0.055327099 0.008188949 0.33500001
0.056376997 0.0082133943 0.33600003
0.057261743 0.0082133943 0.33600003
0.058319539 0.0082378378 0.33700001
0.05938261 0.0082622832 0.33800003
0.060272619 0.0082622832 0.33800003
0.061343584 0.0082867276 0.33900002
0.062236223 0.0082867276 0.33900002
0.063128866 0.0082867276 0.33900002
0.064021513 0.0082867276 0.33900002
0.064914159 0.0082867276 0.33900002
0.066000916 0.008311172 0.34
0.066896193 0.008311172 0.34
0.067791469 0.008311172 0.34
0.068888769 0.0083356174 0.34100002
0.069786683 0.0083356174 0.34100002
0.070891872 0.0083600609 0.34200001
0.072002344 0.0083845062 0.34300002
0.073118061 0.0084089506 0.34400001
0.074454248 0.0084578395 0.34600002
0.081484333 0.0088245096 0.36100003
-0.03697437 0.0080421036 0.29700002
-0.03619232 0.0080421036 0.29700002
-0.03541027 0.0080421036 0.29700002
-0.03462822 0.0080421036 0.29700002
-0.03384617 0.0080421036 0.29700002
-0.033175442 0.0080691809 0.29800001
-0.032390758 0.0080691809 0.29800001
-0.031606074 0.0080691809 0.29800001
-0.03082139 0.0080691809 0.29800001
-0.030036708 0.0080691809 0.29800001
-0.029350188 0.0080962591 0.29900002
-0.028562872 0.0080962591 0.29900002
-0.027775554 0.0080962591 0.29900002
-0.027078496 0.0081233373 0.30000001
-0.026288548 0.0081233373 0.30000001
-0.025583595 0.0081504155 0.30100003
-0.02479101 0.0081504155 0.30100003
-0.023998428 0.0081504155 0.30100003
-0.023205845 0.0081504155 0.30100003
-0.022487722 0.0081774928 0.30200002
-0.021692507 0.0081774928 0.30200002
-0.02089729 0.0081774928 0.30200002
-0.020168636 0.00820457 0.303
-0.019370787 0.00820457 0.303
-0.018572938 0.00820457 0.303
-0.017833753 0.0082316482 0.30400002
-0.01703327 0.0082316482 0.30400002
-0.016232787 0.0082316482 0.30400002
-0.015432304 0.0082316482 0.30400002
-0.014679952 0.0082587255 0.30500001
-0.013876837 0.0082587255 0.30500001
-0.01307372 0.0082587255 0.30500001
-0.012270604 0.0082587255 0.30500001
-0.011505088 0.0082858037 0.30600002
-0.010699338 0.0082858037 0.30600002
-0.0098935887 0.0082858037 0.30600002
-0.009117539 0.008312881 0.30700001
-0.0083091566 0.008312881 0.30700001
-0.0075007742 0.008312881 0.30700001
-0.0066923923 0.008312881 0.30700001
-0.0058840099 0.008312881 0.30700001
-0.0050921612 0.0083399592 0.30800003
-0.004295045 0.0083670374 0.30900002
-0.0034926631 0.0083941147 0.31
-0.0026850151 0.0084211929 0.31100002
-0.0018721006 0.0084482701 0.31200001
-0.0010539197 0.0084753484 0.31300002
-0.00023047248 0.0085024256 0.31400001
0.00059634191 0.0085024256 0.31400001
0.0014276886 0.0085295038 0.31500003
0.0022571362 0.0085295038 0.31500003
0.0030865837 0.0085295038 0.31500003
0.0039160312 0.0085295038 0.31500003
0.0047454792 0.0085295038 0.31500003
0.0055749267 0.0085295038 0.31500003
0.0064043738 0.0085295038 0.31500003
0.0072338218 0.0085295038 0.31500003
0.0080632698 0.0085295038 0.31500003
0.0088927168 0.0085295038 0.31500003
0.0097221648 0.0085295038 0.31500003
0.010551612 0.0085295038 0.31500003
0.011381059 0.0085295038 0.31500003
0.012210507 0.0085295038 0.31500003
0.01308135 0.0085565811 0.31600001
0.013913431 0.0085565811 0.31600001
0.014792175 0.0085836593 0.317
0.015626889 0.0085836593 0.317
0.016461601 0.0085836593 0.317
0.017350879 0.0086107375 0.31800002
0.018188227 0.0086107375 0.31800002
0.019085402 0.0086378148 0.31900001
0.019925382 0.0086378148 0.31900001
0.020765362 0.0086378148 0.31900001
0.021605341 0.0086378148 0.31900001
0.022515684 0.008664893 0.32000002
0.023358298 0.008664893 0.32000002
0.024200911 0.008664893 0.32000002
0.025043525 0.008664893 0.32000002
0.025967032 0.0086919703 0.32100001
0.026812278 0.0086919703 0.32100001
0.027657526 0.0086919703 0.32100001
0.028502772 0.0086919703 0.32100001
0.029439446 0.0087190485 0.32200003
0.030287325 0.0087190485 0.32200003
0.031231899 0.0087461257 0.32300001
0.032082409 0.0087461257 0.32300001
0.032932922 0.0087461257 0.32300001
0.033888027 0.0087732039 0.324
0.034741174 0.0087732039 0.324
0.035704181 0.0088002821 0.32500002
0.036559958 0.0088002821 0.32500002
0.037530862 0.0088273594 0.32600001
0.038389277 0.0088273594 0.32600001
0.039368082 0.0088544376 0.32700002
0.040352151 0.0088815149 0.32800001
0.041215826 0.0088815149 0.32800001
0.0422078 0.0089085931 0.32900003
0.043074112 0.0089085931 0.32900003
0.043940425 0.0089085931 0.32900003
0.044942927 0.0089356704 0.33000001
0.045811869 0.0089356704 0.33000001
0.046680816 0.0089356704 0.33000001
0.047549758 0.0089356704 0.33000001
0.048565432 0.0089627486 0.33100003
0.049437013 0.0089627486 0.33100003
0.050308589 0.0089627486 0.33100003
0.051334783 0.0089898258 0.33200002
0.052366249 0.009016904 0.333
0.053243097 0.009016904 0.333
0.054282468 0.0090439823 0.33400002
0.055327099 0.0090710595 0.33500001
0.056376997 0.0090981377 0.33600003
0.057261743 0.0090981377 0.33600003
0.058319539 0.009125215 0.33700001
0.05938261 0.0091522932 0.33800003
0.060450938 0.0091793705 0.33900002
0.061343584 0.0091793705 0.33900002
0.062236223 0.0091793705 0.33900002
0.063315086 0.0092064478 0.34
0.064210363 0.0092064478 0.34
0.065105639 0.0092064478 0.34
0.066000916 0.0092064478 0.34
0.067092955 0.0092335269 0.34100002
0.067990862 0.0092335269 0.34100002
0.068888769 0.0092335269 0.34100002
0.069991328 0.0092606042 0.34200001
0.070891872 0.0092606042 0.34200001
0.072002344 0.0092876824 0.34300002
0.072905511 0.0092876824 0.34300002
0.074023873 0.0093147596 0.34400001
0.08125861 0.0097480044 0.36000001
0.082891598 0.0098292371 0.36300001
-0.03619232 0.0088241547 0.29700002
-0.03541027 0.0088241547 0.29700002
-0.03462822 0.0088241547 0.29700002
-0.03384617 0.0088241547 0.29700002
-0.033175442 0.0088538649 0.29800001
-0.032390758 0.0088538649 0.29800001
-0.031606074 0.0088538649 0.29800001
-0.03082139 0.0088538649 0.29800001
-0.030036708 0.0088538649 0.29800001
-0.029350188 0.0088835768 0.29900002
-0.028562872 0.0088835768 0.29900002
-0.027775554 0.0088835768 0.29900002
-0.026288548 0.008913287 0.30000001
-0.025498597 0.008913287 0.30000001
-0.02479101 0.0089429989 0.30100003
-0.023998428 0.0089429989 0.30100003
-0.023205845 0.0089429989 0.30100003
-0.022413261 0.0089429989 0.30100003
-0.021692507 0.0089727091 0.30200002
-0.02089729 0.0089727091 0.30200002
-0.020102073 0.0089727091 0.30200002
-0.019370787 0.0090024201 0.303
-0.018572938 0.0090024201 0.303
-0.017775089 0.0090024201 0.303
-0.01703327 0.0090321312 0.30400002
-0.016232787 0.0090321312 0.30400002
-0.015432304 0.0090321312 0.30400002
-0.014679952 0.0090618422 0.30500001
-0.013876837 0.0090618422 0.30500001
-0.01307372 0.0090618422 0.30500001
-0.012270604 0.0090618422 0.30500001
-0.011505088 0.0090915533 0.30600002
-0.010699338 0.0090915533 0.30600002
-0.0098935887 0.0090915533 0.30600002
-0.009117539 0.0091212634 0.30700001
-0.0083091566 0.0091212634 0.30700001
-0.0075007742 0.0091212634 0.30700001
-0.0066923923 0.0091212634 0.30700001
-0.0058840099 0.0091212634 0.30700001
-0.0050921612 0.0091509754 0.30800003
-0.0018721006 0.0092698187 0.31200001
-0.0010505525 0.0092698187 0.31200001
-0.00022973851 0.0092995297 0.31300002
0.00059634191 0.0093292408 0.31400001
0.0014231562 0.0093292408 0.31400001
0.0022571362 0.0093589518 0.31500003
0.0030865837 0.0093589518 0.31500003
0.0039160312 0.0093589518 0.31500003
0.0047454792 0.0093589518 0.31500003
0.0055749267 0.0093589518 0.31500003
0.0064043738 0.0093589518 0.31500003
0.0072338218 0.0093589518 0.31500003
0.0080632698 0.0093589518 0.31500003
0.0088927168 0.0093589518 0.31500003
0.0097221648 0.0093589518 0.31500003
0.010551612 0.0093589518 0.31500003
0.011381059 0.0093589518 0.31500003
0.01224927 0.0093886629 0.31600001
0.01308135 0.0093886629 0.31600001
0.013913431 0.0093886629 0.31600001
0.014792175 0.009418373 0.317
0.015626889 0.009418373 0.317
0.016461601 0.009418373 0.317
0.017350879 0.009448085 0.31800002
0.018188227 0.009448085 0.31800002
0.019085402 0.0094777951 0.31900001
0.019925382 0.0094777951 0.31900001
0.020765362 0.0094777951 0.31900001
0.021605341 0.0094777951 0.31900001
0.022515684 0.0095075062 0.32000002
0.023358298 0.0095075062 0.32000002
0.024200911 0.0095075062 0.32000002
0.025121786 0.0095372172 0.32100001
0.025967032 0.0095372172 0.32100001
0.026812278 0.0095372172 0.32100001
0.027657526 0.0095372172 0.32100001
0.028591568 0.0095669283 0.32200003
0.029439446 0.0095669283 0.32200003
0.030381385 0.0095966393 0.32300001
0.031231899 0.0095966393 0.32300001
0.032082409 0.0095966393 0.32300001
0.032932922 0.0095966393 0.32300001
0.033888027 0.0096263494 0.324
0.034741174 0.0096263494 0.324
0.035704181 0.0096560614 0.32500002
0.036559958 0.0096560614 0.32500002
0.037530862 0.0096857715 0.32600001
0.038389277 0.0096857715 0.32600001
0.039368082 0.0097154835 0.32700002
0.040352151 0.0097451936 0.32800001
0.041215826 0.0097451936 0.32800001
0.0422078 0.0097749056 0.32900003
0.043074112 0.0097749056 0.32900003
0.043940425 0.0097749056 0.32900003
0.044942927 0.0098046158 0.33000001
0.045811869 0.0098046158 0.33000001
0.046680816 0.0098046158 0.33000001
0.047549758 0.0098046158 0.33000001
0.048565432 0.0098343277 0.33100003
0.049437013 0.0098343277 0.33100003
0.050308589 0.0098343277 0.33100003
0.051334783 0.0098640379 0.33200002
0.052208997 0.0098640379 0.33200002
0.053243097 0.0098937489 0.333
0.054282468 0.00992346 0.33400002
0.055327099 0.0099531701 0.33500001
0.056376997 0.0099828821 0.33600003
0.057261743 0.0099828821 0.33600003
0.058319539 0.010012592 0.33700001
0.05938261 0.010042304 0.33800003
0.060450938 0.010072014 0.33900002
0.061343584 0.010072014 0.33900002
0.062419809 0.010101725 0.34
0.063315086 0.010101725 0.34
0.064210363 0.010101725 0.34
0.065297134 0.010131436 0.34100002
0.066195041 0.010131436 0.34100002
0.067289703 0.010161147 0.34200001
0.068190239 0.010161147 0.34200001
0.069090784 0.010161147 0.34200001
0.070195988 0.010190859 0.34300002
0.071099162 0.010190859 0.34300002
0.072002344 0.010190859 0.34300002
0.072905511 0.010190859 0.34300002
0.074023873 0.01022057 0.34400001
0.075583138 0.010309702 0.347
0.082663245 0.010755367 0.36200002
-0.03541027 0.0096062049 0.29700002
-0.03462822 0.0096062049 0.29700002
-0.03384617 0.0096062049 0.29700002
-0.033175442 0.0096385488 0.29800001
-0.032390758 0.0096385488 0.29800001
-0.031606074 0.0096385488 0.29800001
-0.03082139 0.0096385488 0.29800001
-0.030036708 0.0096385488 0.29800001
-0.029350188 0.0096708927 0.29900002
-0.028562872 0.0096708927 0.29900002
-0.026288548 0.0097032366 0.30000001
-0.025498597 0.0097032366 0.30000001
-0.02479101 0.0097355815 0.30100003
-0.023998428 0.0097355815 0.30100003
-0.023205845 0.0097355815 0.30100003
-0.022413261 0.0097355815 0.30100003
-0.021692507 0.0097679254 0.30200002
-0.02089729 0.0097679254 0.30200002
-0.020102073 0.0097679254 0.30200002
-0.019370787 0.0098002693 0.303
-0.018572938 0.0098002693 0.303
-0.017775089 0.0098002693 0.303
-0.01703327 0.0098326132 0.30400002
-0.016232787 0.0098326132 0.30400002
-0.015432304 0.0098326132 0.30400002
-0.014631822 0.0098326132 0.30400002
-0.013876837 0.0098649571 0.30500001
-0.01307372 0.0098649571 0.30500001
-0.012270604 0.0098649571 0.30500001
-0.011505088 0.0098973019 0.30600002
-0.010699338 0.0098973019 0.30600002
-0.0098935887 0.0098973019 0.30600002
-0.009117539 0.0099296458 0.30700001
-0.0083091566 0.0099296458 0.30700001
-0.0075007742 0.0099296458 0.30700001
-0.0066923923 0.0099296458 0.30700001
-0.005903176 0.0099619906 0.30800003
-0.0018661004 0.010059022 0.31100002
-0.0010505525 0.010091366 0.31200001
-0.00022973851 0.010123711 0.31300002
0.00059444271 0.010123711 0.31300002
0.0014231562 0.010156054 0.31400001
0.0022499706 0.010156054 0.31400001
0.0030865837 0.010188399 0.31500003
0.0039160312 0.010188399 0.31500003
0.0047454792 0.010188399 0.31500003
0.0055749267 0.010188399 0.31500003
0.0064043738 0.010188399 0.31500003
0.0072338218 0.010188399 0.31500003
0.0080632698 0.010188399 0.31500003
0.0088927168 0.010188399 0.31500003
0.0097221648 0.010188399 0.31500003
0.010551612 0.010188399 0.31500003
0.011381059 0.010188399 0.31500003
0.012210507 0.010188399 0.31500003
0.01308135 0.010220743 0.31600001
0.013913431 0.010220743 0.31600001
0.014792175 0.010253087 0.317
0.015626889 0.010253087 0.317
0.016461601 0.010253087 0.317
0.017350879 0.010285432 0.31800002
0.018188227 0.010285432 0.31800002
0.019085402 0.010317774 0.31900001
0.019925382 0.010317774 0.31900001
0.020765362 0.010317774 0.31900001
0.02167307 0.010350119 0.32000002
0.022515684 0.010350119 0.32000002
0.023358298 0.010350119 0.32000002
0.024200911 0.010350119 0.32000002
0.025121786 0.010382463 0.32100001
0.025967032 0.010382463 0.32100001
0.026812278 0.010382463 0.32100001
0.027743686 0.010414808 0.32200003
0.028591568 0.010414808 0.32200003
0.029439446 0.010414808 0.32200003
0.030381385 0.010447152 0.32300001
0.031231899 0.010447152 0.32300001
0.032082409 0.010447152 0.32300001
0.033034883 0.010479495 0.324
0.033888027 0.010479495 0.324
0.034741174 0.010479495 0.324
0.035704181 0.01051184 0.32500002
0.036559958 0.01051184 0.32500002
0.037530862 0.010544184 0.32600001
0.038389277 0.010544184 0.32600001
0.039368082 0.010576528 0.32700002
0.040352151 0.010608872 0.32800001
0.041215826 0.010608872 0.32800001
0.042079508 0.010608872 0.32800001
0.043074112 0.010641217 0.32900003
0.043940425 0.010641217 0.32900003
0.044942927 0.01067356 0.33000001
0.045811869 0.01067356 0.33000001
0.046680816 0.01067356 0.33000001
0.047549758 0.01067356 0.33000001
0.048418704 0.01067356 0.33000001
0.049437013 0.010705905 0.33100003
0.050308589 0.010705905 0.33100003
0.051334783 0.010738249 0.33200002
0.052208997 0.010738249 0.33200002
0.053243097 0.010770593 0.333
0.054119941 0.010770593 0.333
0.055161946 0.010802938 0.33400002
0.056376997 0.010867625 0.33600003
0.057261743 0.010867625 0.33600003
0.058319539 0.010899969 0.33700001
0.05938261 0.010932314 0.33800003
0.060450938 0.010964658 0.33900002
0.061343584 0.010964658 0.33900002
0.062419809 0.010997001 0.34
0.063315086 0.010997001 0.34
0.06439922 0.011029346 0.34100002
0.065297134 0.011029346 0.34100002
0.066389158 0.01106169 0.34200001
0.067289703 0.01106169 0.34200001
0.068389632 0.011094035 0.34300002
0.069292814 0.011094035 0.34300002
0.070195988 0.011094035 0.34300002
0.071306445 0.011126379 0.34400001
0.072212256 0.011126379 0.34400001
0.073118061 0.011126379 0.34400001
0.07423906 0.011158722 0.34500003
-0.03474481 0.010423233 0.29800001
-0.033960126 0.010423233 0.29800001
-0.033175442 0.010423233 0.29800001
-0.032390758 0.010423233 0.29800001
-0.031606074 0.010423233 0.29800001
-0.03082139 0.010423233 0.29800001
-0.030036708 0.010423233 0.29800001
-0.029252024 0.010423233 0.29800001
-0.028562872 0.01045821 0.29900002
-0.027775554 0.01045821 0.29900002
-0.026288548 0.010493187 0.30000001
-0.025498597 0.010493187 0.30000001
-0.024708647 0.010493187 0.30000001
-0.023998428 0.010528166 0.30100003
-0.023205845 0.010528166 0.30100003
-0.022413261 0.010528166 0.30100003
-0.021620678 0.010528166 0.30100003
-0.02089729 0.010563143 0.30200002
-0.020102073 0.010563143 0.30200002
-0.019306857 0.010563143 0.30200002
-0.018572938 0.010598119 0.303
-0.017775089 0.010598119 0.303
-0.016977239 0.010598119 0.303
-0.016232787 0.010633097 0.30400002
-0.015432304 0.010633097 0.30400002
-0.014631822 0.010633097 0.30400002
-0.013876837 0.010668074 0.30500001
-0.01307372 0.010668074 0.30500001
-0.012310836 0.010703051 0.30600002
-0.011505088 0.010703051 0.30600002
-0.010699338 0.010703051 0.30600002
-0.0098935887 0.010703051 0.30600002
-0.009117539 0.010738028 0.30700001
-0.0083091566 0.010738028 0.30700001
-0.0075007742 0.010738028 0.30700001
-0.0066923923 0.010738028 0.30700001
-0.005903176 0.010773007 0.30800003
-0.0026763815 0.01084296 0.31
-0.0018661004 0.010877938 0.31100002
-0.0010505525 0.010912915 0.31200001
-0.00022900449 0.010912915 0.31200001
0.00059444271 0.010947892 0.31300002
0.001418624 0.010947892 0.31300002
0.0022499706 0.01098287 0.31400001
0.0030767848 0.01098287 0.31400001
0.0039035992 0.01098287 0.31400001
0.0047304137 0.01098287 0.31400001
0.0055749267 0.011017848 0.31500003
0.0064043738 0.011017848 0.31500003
0.0072338218 0.011017848 0.31500003
0.0080632698 0.011017848 0.31500003
0.0088927168 0.011017848 0.31500003
0.0097221648 0.011017848 0.31500003
0.010551612 0.011017848 0.31500003
0.011381059 0.011017848 0.31500003
0.012210507 0.011017848 0.31500003
0.01308135 0.011052825 0.31600001
0.013913431 0.011052825 0.31600001
0.014745513 0.011052825 0.31600001
0.015626889 0.011087801 0.317
0.016461601 0.011087801 0.317
0.017350879 0.011122779 0.31800002
0.018188227 0.011122779 0.31800002
0.019085402 0.011157756 0.31900001
0.019925382 0.011157756 0.31900001
0.020765362 0.011157756 0.31900001
0.021605341 0.011157756 0.31900001
0.022515684 0.011192733 0.32000002
0.023358298 0.011192733 0.32000002
0.024200911 0.011192733 0.32000002
0.025121786 0.011227711 0.32100001
0.025967032 0.011227711 0.32100001
0.026812278 0.011227711 0.32100001
0.027743686 0.011262689 0.32200003
0.028591568 0.011262689 0.32200003
0.029530872 0.011297666 0.32300001
0.030381385 0.011297666 0.32300001
0.031231899 0.011297666 0.32300001
0.032082409 0.011297666 0.32300001
0.033034883 0.011332642 0.324
0.033888027 0.011332642 0.324
0.034741174 0.011332642 0.324
0.035704181 0.01136762 0.32500002
0.036559958 0.01136762 0.32500002
0.037530862 0.011402597 0.32600001
0.038389277 0.011402597 0.32600001
0.039368082 0.011437574 0.32700002
0.040229127 0.011437574 0.32700002
0.041215826 0.011472552 0.32800001
0.042079508 0.011472552 0.32800001
0.043074112 0.01150753 0.32900003
0.043940425 0.01150753 0.32900003
0.044806737 0.01150753 0.32900003
0.045811869 0.011542507 0.33000001
0.046680816 0.011542507 0.33000001
0.047549758 0.011542507 0.33000001
0.048418704 0.011542507 0.33000001
0.049437013 0.011577484 0.33100003
0.050308589 0.011577484 0.33100003
0.051180165 0.011577484 0.33100003
0.052208997 0.011612461 0.33200002
0.053243097 0.011647438 0.333
0.054119941 0.011647438 0.333
0.055161946 0.011682416 0.33400002
0.056209207 0.011717393 0.33500001
0.057261743 0.011752371 0.33600003
0.058319539 0.011787347 0.33700001
0.059558295 0.011857302 0.33900002
0.060450938 0.011857302 0.33900002
0.061524536 0.011892279 0.34
0.062603399 0.011927257 0.34100002
0.063501313 0.011927257 0.34100002
0.06458807 0.011962234 0.34200001
0.065488614 0.011962234 0.34200001
0.066583283 0.011997212 0.34300002
0.067486458 0.011997212 0.34300002
0.068389632 0.011997212 0.34300002
0.069494829 0.012032188 0.34400001
0.07040064 0.012032188 0.34400001
0.071306445 0.012032188 0.34400001
0.072422184 0.012067166 0.34500003
0.073330618 0.012067166 0.34500003
0.074454248 0.012102143 0.34600002
0.075800963 0.012172098 0.34800002
0.07737866 0.012277029 0.35100001
-0.03474481 0.011207916 0.29800001
-0.033960126 0.011207916 0.29800001
-0.033175442 0.011207916 0.29800001
-0.032390758 0.011207916 0.29800001
-0.031606074 0.011207916 0.29800001
-0.03082139 0.011207916 0.29800001
-0.030036708 0.011207916 0.29800001
-0.029252024 0.011207916 0.29800001
-0.028467342 0.011207916 0.29800001
-0.027775554 0.011245527 0.29900002
-0.026988236 0.011245527 0.29900002
-0.026288548 0.011283137 0.30000001
-0.025498597 0.011283137 0.30000001
-0.024708647 0.011283137 0.30000001
-0.023918698 0.011283137 0.30000001
-0.023205845 0.011320748 0.30100003
-0.022413261 0.011320748 0.30100003
-0.021620678 0.011320748 0.30100003
-0.02089729 0.011358358 0.30200002
-0.020102073 0.011358358 0.30200002
-0.019306857 0.011358358 0.30200002
-0.01851164 0.011358358 0.30200002
-0.017775089 0.011395968 0.303
-0.016977239 0.011395968 0.303
-0.016232787 0.011433579 0.30400002
-0.015432304 0.011433579 0.30400002
-0.014631822 0.011433579 0.30400002
-0.013876837 0.01147119 0.30500001
-0.01307372 0.01147119 0.30500001
-0.012310836 0.0115088 0.30600002
-0.011505088 0.0115088 0.30600002
-0.010699338 0.0115088 0.30600002
-0.0099259205 0.011546411 0.30700001
-0.009117539 0.011546411 0.30700001
-0.0083091566 0.011546411 0.30700001
-0.0075007742 0.011546411 0.30700001
-0.0066923923 0.011546411 0.30700001
-0.005903176 0.011584021 0.30800003
-0.0050921612 0.011584021 0.30800003
-0.004295045 0.011621632 0.30900002
-0.0034813967 0.011621632 0.30900002
-0.0026763815 0.011659241 0.31
-0.0018661004 0.011696853 0.31100002
-0.0010471854 0.011696853 0.31100002
-0.00022900449 0.011734462 0.31200001
0.00059254351 0.011734462 0.31200001
0.001418624 0.011772074 0.31300002
0.0022428052 0.011772074 0.31300002
0.0030767848 0.011809683 0.31400001
0.0039035992 0.011809683 0.31400001
0.0047304137 0.011809683 0.31400001
0.0055572279 0.011809683 0.31400001
0.0063840421 0.011809683 0.31400001
0.0072108568 0.011809683 0.31400001
0.0080376714 0.011809683 0.31400001
0.0088927168 0.011847295 0.31500003
0.0097221648 0.011847295 0.31500003
0.010551612 0.011847295 0.31500003
0.011381059 0.011847295 0.31500003
0.012210507 0.011847295 0.31500003
0.013039955 0.011847295 0.31500003
0.013913431 0.011884904 0.31600001
0.014745513 0.011884904 0.31600001
0.015626889 0.011922515 0.317
0.016461601 0.011922515 0.317
0.017350879 0.011960126 0.31800002
0.018188227 0.011960126 0.31800002
0.019025574 0.011960126 0.31800002
0.019925382 0.011997736 0.31900001
0.020765362 0.011997736 0.31900001
0.02167307 0.012035347 0.32000002
0.022515684 0.012035347 0.32000002
0.023358298 0.012035347 0.32000002
0.024200911 0.012035347 0.32000002
0.025121786 0.012072957 0.32100001
0.025967032 0.012072957 0.32100001
0.026812278 0.012072957 0.32100001
0.027743686 0.012110568 0.32200003
0.028591568 0.012110568 0.32200003
0.029530872 0.012148178 0.32300001
0.030381385 0.012148178 0.32300001
0.031231899 0.012148178 0.32300001
0.032181736 0.012185788 0.324
0.033034883 0.012185788 0.324
0.033888027 0.012185788 0.324
0.034741174 0.012185788 0.324
0.035704181 0.012223399 0.32500002
0.036559958 0.012223399 0.32500002
0.037530862 0.012261009 0.32600001
0.038389277 0.012261009 0.32600001
0.039368082 0.01229862 0.32700002
0.040229127 0.01229862 0.32700002
0.041215826 0.01233623 0.32800001
0.042079508 0.01233623 0.32800001
0.043074112 0.012373841 0.32900003
0.043940425 0.012373841 0.32900003
0.044806737 0.012373841 0.32900003
0.045811869 0.012411451 0.33000001
0.046680816 0.012411451 0.33000001
0.047549758 0.012411451 0.33000001
0.048418704 0.012411451 0.33000001
0.049437013 0.012449062 0.33100003
0.050308589 0.012449062 0.33100003
0.051180165 0.012449062 0.33100003
0.052208997 0.012486672 0.33200002
0.053243097 0.012524283 0.333
0.054119941 0.012524283 0.333
0.055161946 0.012561893 0.33400002
0.056209207 0.012599504 0.33500001
0.057261743 0.012637114 0.33600003
0.058319539 0.012674725 0.33700001
0.059558295 0.012749946 0.33900002
0.0609859 0.012862776 0.34200001
0.062067404 0.012900388 0.34300002
0.063154161 0.012937997 0.34400001
0.064059973 0.012937997 0.34400001
0.065154642 0.012975609 0.34500003
0.066063084 0.012975609 0.34500003
0.067165643 0.013013219 0.34600002
0.068076722 0.013013219 0.34600002
0.068987794 0.013013219 0.34600002
0.070100889 0.013050828 0.347
0.071014598 0.013050828 0.347
0.071928307 0.013050828 0.347
0.073051937 0.01308844 0.34800002
0.073968276 0.01308844 0.34800002
0.075099804 0.013126049 0.34900001
0.076454416 0.01320127 0.35100001
0.077819563 0.013276491 0.35300002
-0.036314178 0.0119926 0.29800001
-0.035529494 0.0119926 0.29800001
-0.03474481 0.0119926 0.29800001
-0.03384617 0.011952356 0.29700002
-0.033175442 0.0119926 0.29800001
-0.032390758 0.0119926 0.29800001
-0.031606074 0.0119926 0.29800001
-0.03082139 0.0119926 0.29800001
-0.030036708 0.0119926 0.29800001
-0.029252024 0.0119926 0.29800001
-0.028562872 0.012032844 0.29900002
-0.027775554 0.012032844 0.29900002
-0.026988236 0.012032844 0.29900002
-0.026288548 0.012073088 0.30000001
-0.025498597 0.012073088 0.30000001
-0.024708647 0.012073088 0.30000001
-0.023918698 0.012073088 0.30000001
-0.023205845 0.012113332 0.30100003
-0.022413261 0.012113332 0.30100003
-0.021620678 0.012113332 0.30100003
-0.02089729 0.012153574 0.30200002
-0.020102073 0.012153574 0.30200002
-0.019306857 0.012153574 0.30200002
-0.01851164 0.012153574 0.30200002
-0.017775089 0.012193818 0.303
-0.016977239 0.012193818 0.303
-0.016232787 0.012234062 0.30400002
-0.015432304 0.012234062 0.30400002
-0.014631822 0.012234062 0.30400002
-0.013876837 0.012274305 0.30500001
-0.01307372 0.012274305 0.30500001
-0.012310836 0.01231455 0.30600002
-0.011505088 0.01231455 0.30600002
-0.010699338 0.01231455 0.30600002
-0.0099259205 0.012354792 0.30700001
-0.009117539 0.012354792 0.30700001
-0.0083091566 0.012354792 0.30700001
-0.0075007742 0.012354792 0.30700001
-0.0066923923 0.012354792 0.30700001
-0.005903176 0.012395036 0.30800003
-0.0050921612 0.012395036 0.30800003
-0.0042811455 0.012395036 0.30800003
-0.0034813967 0.01243528 0.30900002
-0.0026763815 0.012475523 0.31
-0.0018601 0.012475523 0.31
-0.0010471854 0.012515767 0.31100002
-0.00022827052 0.012515767 0.31100002
0.00059254351 0.01255601 0.31200001
0.0014140916 0.01255601 0.31200001
0.0022428052 0.012596254 0.31300002
0.0030669863 0.012596254 0.31300002
0.0038911675 0.012596254 0.31300002
0.0047304137 0.012636498 0.31400001
0.0055572279 0.012636498 0.31400001
0.0063840421 0.012636498 0.31400001
0.0072108568 0.012636498 0.31400001
0.0080376714 0.012636498 0.31400001
0.0088644857 0.012636498 0.31400001
0.0097221648 0.012676742 0.31500003
0.010551612 0.012676742 0.31500003
0.011381059 0.012676742 0.31500003
0.012210507 0.012676742 0.31500003
0.013039955 0.012676742 0.31500003
0.013913431 0.012716985 0.31600001
0.014745513 0.012716985 0.31600001
0.015626889 0.012757228 0.317
0.016461601 0.012757228 0.317
0.017350879 0.012797472 0.31800002
0.018188227 0.012797472 0.31800002
0.019025574 0.012797472 0.31800002
0.019925382 0.012837715 0.31900001
0.020765362 0.012837715 0.31900001
0.02167307 0.01287796 0.32000002
0.022515684 0.01287796 0.32000002
0.023358298 0.01287796 0.32000002
0.024200911 0.01287796 0.32000002
0.025121786 0.012918203 0.32100001
0.025967032 0.012918203 0.32100001
0.026812278 0.012918203 0.32100001
0.027743686 0.012958447 0.32200003
0.028591568 0.012958447 0.32200003
0.029530872 0.012998691 0.32300001
0.030381385 0.012998691 0.32300001
0.031231899 0.012998691 0.32300001
0.032082409 0.012998691 0.32300001
0.033034883 0.013038933 0.324
0.033888027 0.013038933 0.324
0.034741174 0.013038933 0.324
0.035704181 0.013079178 0.32500002
0.036559958 0.013079178 0.32500002
0.037415739 0.013079178 0.32500002
0.038389277 0.013119421 0.32600001
0.039368082 0.013159665 0.32700002
0.040229127 0.013159665 0.32700002
0.041215826 0.013199909 0.32800001
0.042079508 0.013199909 0.32800001
0.043074112 0.013240153 0.32900003
0.043940425 0.013240153 0.32900003
0.044806737 0.013240153 0.32900003
0.045811869 0.013280395 0.33000001
0.046680816 0.013280395 0.33000001
0.047549758 0.013280395 0.33000001
0.048418704 0.013280395 0.33000001
0.049287651 0.013280395 0.33000001
0.050308589 0.01332064 0.33100003
0.051180165 0.01332064 0.33100003
0.052208997 0.013360883 0.33200002
0.053243097 0.013401126 0.333
0.054119941 0.013401126 0.333
0.055161946 0.013441371 0.33400002
0.056209207 0.013481613 0.33500001
0.057261743 0.013521858 0.33600003
0.058319539 0.013562101 0.33700001
0.05938261 0.013602345 0.33800003
0.061342545 0.013843806 0.34400001
0.063704923 0.013964537 0.347
0.064804859 0.014004781 0.34800002
0.065721199 0.014004781 0.34800002
0.066829026 0.014045024 0.34900001
0.067748003 0.014045024 0.34900001
0.06866698 0.014045024 0.34900001
0.069585949 0.014045024 0.34900001
0.070504926 0.014045024 0.34900001
0.071628556 0.014085269 0.35000002
0.07255017 0.014085269 0.35000002
0.073471777 0.014085269 0.35000002
0.074605934 0.014125512 0.35100001
0.075745359 0.014165756 0.35200003
0.076890051 0.014205999 0.35300002
0.078260466 0.014286486 0.35500002
-0.036314178 0.012777283 0.29800001
-0.035529494 0.012777283 0.29800001
-0.03474481 0.012777283 0.29800001
-0.033960126 0.012777283 0.29800001
-0.033175442 0.012777283 0.29800001
-0.032390758 0.012777283 0.29800001
-0.031606074 0.012777283 0.29800001
-0.03082139 0.012777283 0.29800001
-0.030036708 0.012777283 0.29800001
-0.029252024 0.012777283 0.29800001
-0.028562872 0.012820161 0.29900002
-0.027775554 0.012820161 0.29900002
-0.026988236 0.012820161 0.29900002
-0.02620092 0.012820161 0.29900002
-0.025498597 0.012863037 0.30000001
-0.024708647 0.012863037 0.30000001
-0.023998428 0.012905914 0.30100003
-0.023205845 0.012905914 0.30100003
-0.022413261 0.012905914 0.30100003
-0.021620678 0.012905914 0.30100003
-0.020828094 0.012905914 0.30100003
-0.020102073 0.012948791 0.30200002
-0.019306857 0.012948791 0.30200002
-0.01851164 0.012948791 0.30200002
-0.017775089 0.012991667 0.303
-0.016977239 0.012991667 0.303
-0.016232787 0.013034544 0.30400002
-0.015432304 0.013034544 0.30400002
-0.014631822 0.013034544 0.30400002
-0.013876837 0.01307742 0.30500001
-0.01307372 0.01307742 0.30500001
-0.012270604 0.01307742 0.30500001
-0.011505088 0.013120298 0.30600002
-0.010699338 0.013120298 0.30600002
-0.0099259205 0.013163175 0.30700001
-0.009117539 0.013163175 0.30700001
-0.0083091566 0.013163175 0.30700001
-0.0075007742 0.013163175 0.30700001
-0.0067141918 0.013206052 0.30800003
-0.005903176 0.013206052 0.30800003
-0.0050921612 0.013206052 0.30800003
-0.0042811455 0.013206052 0.30800003
-0.0034813967 0.013248928 0.30900002
-0.0026677481 0.013248928 0.30900002
-0.0018601 0.013291804 0.31
-0.0010438182 0.013291804 0.31
-0.00022827052 0.013334681 0.31100002
0.00059064437 0.013334681 0.31100002
0.0014140916 0.013377558 0.31200001
0.0022356396 0.013377558 0.31200001
0.0030669863 0.013420436 0.31300002
